<?xml version="1.0"?>
<opencv_storage>
<depth type_id="opencv-matrix">
  <rows>21</rows>
  <cols>314</cols>
  <dt>f</dt>
  <data>
    2.88900018e+00 2.90200019e+00 2.91500020e+00 2.96700025e+00 3.01500010e+00 3.02100015e+00 3.02100015e+00 3.03500009e+00 3.03500009e+00 3.03500009e+00 3.02800012e+00 2.99400020e+00 2.98100019e+00 2.98100019e+00 2.98700023e+00 2.98700023e+00 2.98100019e+00 2.98100019e+00 2.98100019e+00 2.98100019e+00 2.97400022e+00 2.96100020e+00 2.95400023e+00 2.93400025e+00 2.90900016e+00 2.90200019e+00 2.88300014e+00 2.87700009e+00 2.87700009e+00 2.87700009e+00 2.87100005e+00 2.87100005e+00 2.87100005e+00 2.87100005e+00 2.87100005e+00 2.87700009e+00 2.88900018e+00 2.88300014e+00 2.88300014e+00 2.88900018e+00 2.87100005e+00 2.86400008e+00 2.84600019e+00 2.83400011e+00 2.83400011e+00 2.83400011e+00 2.83400011e+00 2.84000015e+00 2.85200024e+00 2.85800004e+00 2.87100005e+00 2.88300014e+00 2.88900018e+00 2.90200019e+00 2.90900016e+00 2.92100024e+00 2.91500020e+00 2.91500020e+00 2.91500020e+00 2.90200019e+00 2.89600015e+00 2.88900018e+00 2.88900018e+00 2.89600015e+00 2.90200019e+00 2.90200019e+00 2.90200019e+00 2.90200019e+00 2.89600015e+00 2.89600015e+00 2.90200019e+00 2.90200019e+00 2.89600015e+00 2.89600015e+00 2.90200019e+00 2.90200019e+00 2.90900016e+00 2.90900016e+00 2.89600015e+00 2.84600019e+00 2.84600019e+00 2.85200024e+00 2.89600015e+00 2.90900016e+00 2.90200019e+00 2.90200019e+00 2.92100024e+00 2.93400025e+00 2.93400025e+00 2.93400025e+00 2.92800021e+00 2.90900016e+00 2.88900018e+00 2.88900018e+00 2.89600015e+00 2.90200019e+00 2.90200019e+00 2.89600015e+00 2.89600015e+00 2.89600015e+00 2.89600015e+00 2.87100005e+00 2.85800004e+00 2.85800004e+00 2.85800004e+00 2.85800004e+00 2.85800004e+00 2.86400008e+00 2.86400008e+00 2.85800004e+00 2.85200024e+00 2.84600019e+00 2.84000015e+00 2.84000015e+00 2.84600019e+00 2.85200024e+00 2.85200024e+00 2.88300014e+00 2.88900018e+00 2.88900018e+00 2.88900018e+00 2.87700009e+00 2.87100005e+00 2.87100005e+00 2.85200024e+00 2.84600019e+00 2.84600019e+00 2.84000015e+00 2.84000015e+00 2.83400011e+00 2.82200003e+00 2.82200003e+00 2.82800007e+00 2.83400011e+00 2.84000015e+00 2.84600019e+00 2.86400008e+00 2.88300014e+00 2.88300014e+00 2.90200019e+00 2.90900016e+00 2.90200019e+00 2.89600015e+00 2.89600015e+00 2.89600015e+00 2.89600015e+00 2.90200019e+00 2.90900016e+00 2.92100024e+00 2.94100022e+00 2.95400023e+00 2.91500020e+00 2.88300014e+00 2.87700009e+00 2.83400011e+00 2.83400011e+00 2.82200003e+00 2.82200003e+00 2.82200003e+00 2.82800007e+00 2.82800007e+00 2.84000015e+00 2.84000015e+00 2.85200024e+00 2.85200024e+00 2.85200024e+00 2.84600019e+00 2.84000015e+00 2.84000015e+00 2.84000015e+00 2.83400011e+00 2.83400011e+00 2.83400011e+00 2.83400011e+00 2.84000015e+00 2.84000015e+00 2.84000015e+00 2.84000015e+00 0. 2.85800004e+00 2.85800004e+00 2.87100005e+00 2.87700009e+00 2.88300014e+00 2.90900016e+00 2.92800021e+00 2.94100022e+00 2.93400025e+00 2.91500020e+00 2.88300014e+00 2.86400008e+00 2.84600019e+00 2.83400011e+00 2.81000018e+00 2.79800010e+00 2.78600001e+00 2.78000021e+00 2.78000021e+00 2.79800010e+00 2.81600022e+00 0. 0. 0. 0. 0. 2.84600019e+00 2.84600019e+00 2.85800004e+00 2.86400008e+00 2.86400008e+00 2.86400008e+00 2.87100005e+00 2.87100005e+00 2.87700009e+00 2.85800004e+00 2.85800004e+00 2.85800004e+00 2.86400008e+00 2.87100005e+00 2.88300014e+00 2.88300014e+00 2.87700009e+00 2.87700009e+00 2.91500020e+00 2.91500020e+00 0. 2.79800010e+00 2.79800010e+00 2.79800010e+00 2.81600022e+00 2.82800007e+00 2.82800007e+00 2.84000015e+00 2.84000015e+00 2.84000015e+00 2.80400014e+00 2.80400014e+00 2.70100021e+00 2.67900014e+00 2.67900014e+00 0. 2.65700006e+00 2.64700007e+00 2.64100003e+00 2.63600016e+00 2.63600016e+00 2.63100004e+00 2.63100004e+00 2.63100004e+00 2.63100004e+00 2.63100004e+00 2.63600016e+00 0. 0. 0. 0. 0. 0. 2.41100001e+00 2.41100001e+00 2.41900015e+00 2.42800021e+00 2.43700004e+00 2.44200015e+00 2.42800021e+00 2.41100001e+00 2.40200019e+00 2.39300013e+00 2.38900018e+00 2.38900018e+00 2.38900018e+00 2.38900018e+00 2.38900018e+00 2.38400006e+00 2.38400006e+00 2.38400006e+00 2.38900018e+00 2.39700007e+00 2.40200019e+00 2.41900015e+00 2.43700004e+00 2.45100021e+00 2.45100021e+00 2.46000004e+00 2.46000004e+00 2.45500016e+00 2.44200015e+00 2.43700004e+00 2.43700004e+00 2.46000004e+00 2.46900010e+00 2.47800016e+00 2.47800016e+00 2.48800015e+00 2.48800015e+00 2.50200009e+00 2.50200009e+00 2.50200009e+00 2.50200009e+00 2.50600004e+00 2.50600004e+00 0. 2.52100015e+00 2.52100015e+00 2.51600003e+00 2.51600003e+00 0. 0. 0. 0. 0. 2.44600010e+00 2.43700004e+00 2.41900015e+00
    2.88900018e+00 2.88900018e+00 2.90200019e+00 2.94100022e+00 3.00100017e+00 3.02100015e+00 3.02100015e+00 3.03500009e+00 3.04200006e+00 3.04200006e+00 3.04200006e+00 3.00800014e+00 2.99400020e+00 2.98100019e+00 2.96700025e+00 2.96700025e+00 2.96700025e+00 2.96700025e+00 2.97400022e+00 2.97400022e+00 2.96700025e+00 2.96700025e+00 2.96700025e+00 2.96100020e+00 2.94700003e+00 2.92100024e+00 2.90900016e+00 2.89600015e+00 2.88900018e+00 2.88900018e+00 2.88900018e+00 2.88300014e+00 2.88300014e+00 2.88300014e+00 2.88300014e+00 2.88300014e+00 2.90900016e+00 2.90900016e+00 2.90900016e+00 2.92100024e+00 2.90200019e+00 2.88900018e+00 2.86400008e+00 2.85200024e+00 2.84600019e+00 2.84600019e+00 2.84600019e+00 2.84600019e+00 2.86400008e+00 2.87100005e+00 2.88300014e+00 2.88300014e+00 2.89600015e+00 2.90200019e+00 2.90900016e+00 2.92100024e+00 2.91500020e+00 2.91500020e+00 2.90900016e+00 2.90200019e+00 2.90200019e+00 2.90200019e+00 2.90900016e+00 2.91500020e+00 2.91500020e+00 2.91500020e+00 2.91500020e+00 2.90900016e+00 2.89600015e+00 2.89600015e+00 2.90200019e+00 2.89600015e+00 2.89600015e+00 2.89600015e+00 2.89600015e+00 2.89600015e+00 2.90900016e+00 2.92100024e+00 2.88900018e+00 2.78600001e+00 2.78600001e+00 2.82800007e+00 2.87700009e+00 2.88900018e+00 2.88900018e+00 2.88900018e+00 2.91500020e+00 2.92800021e+00 2.92800021e+00 2.90900016e+00 2.89600015e+00 2.88900018e+00 2.88900018e+00 2.90200019e+00 2.90200019e+00 2.90900016e+00 2.90900016e+00 2.90900016e+00 2.90900016e+00 2.90900016e+00 0. 0. 2.86400008e+00 2.86400008e+00 2.87100005e+00 2.87100005e+00 2.87700009e+00 2.87700009e+00 2.87700009e+00 2.87700009e+00 2.86400008e+00 2.85200024e+00 2.85200024e+00 2.84600019e+00 2.84600019e+00 2.85800004e+00 2.87100005e+00 2.92100024e+00 2.92100024e+00 2.91500020e+00 2.90900016e+00 2.89600015e+00 2.88300014e+00 2.88300014e+00 2.86400008e+00 2.85800004e+00 2.85200024e+00 2.84600019e+00 2.84000015e+00 2.84000015e+00 2.83400011e+00 2.83400011e+00 2.84000015e+00 2.84600019e+00 2.85200024e+00 2.85800004e+00 2.87700009e+00 2.90200019e+00 2.90200019e+00 2.92800021e+00 2.92800021e+00 2.92800021e+00 2.90900016e+00 2.90200019e+00 2.90200019e+00 2.90200019e+00 2.89600015e+00 2.89600015e+00 2.90200019e+00 2.91500020e+00 2.94100022e+00 2.92100024e+00 2.90200019e+00 2.87700009e+00 2.87700009e+00 2.85800004e+00 2.84000015e+00 2.84000015e+00 2.84000015e+00 2.84000015e+00 2.84000015e+00 2.84000015e+00 2.84000015e+00 2.85200024e+00 2.85800004e+00 2.86400008e+00 2.86400008e+00 2.85800004e+00 2.85800004e+00 2.85200024e+00 2.84600019e+00 2.84600019e+00 2.84600019e+00 2.84000015e+00 2.84000015e+00 2.84600019e+00 2.84600019e+00 0. 2.88300014e+00 2.87700009e+00 2.87700009e+00 2.88900018e+00 2.89600015e+00 2.90900016e+00 2.93400025e+00 2.95400023e+00 2.95400023e+00 2.94700003e+00 2.92800021e+00 2.88300014e+00 2.87100005e+00 2.84600019e+00 2.83400011e+00 2.81600022e+00 2.79800010e+00 2.79200006e+00 2.79200006e+00 2.79800010e+00 2.79800010e+00 2.81600022e+00 2.84600019e+00 2.85800004e+00 0. 0. 2.87100005e+00 2.85800004e+00 2.85800004e+00 2.86400008e+00 2.87100005e+00 2.87100005e+00 2.87100005e+00 2.87700009e+00 2.87700009e+00 2.88300014e+00 2.86400008e+00 2.86400008e+00 2.86400008e+00 2.87700009e+00 2.87700009e+00 2.90900016e+00 2.92100024e+00 2.92100024e+00 2.92800021e+00 2.91500020e+00 2.91500020e+00 2.92800021e+00 2.92800021e+00 2.83400011e+00 2.83400011e+00 2.83400011e+00 2.84000015e+00 2.84000015e+00 2.84000015e+00 2.84000015e+00 2.82800007e+00 2.80400014e+00 2.80400014e+00 2.70600009e+00 2.67900014e+00 2.67900014e+00 2.65700006e+00 2.64700007e+00 2.63600016e+00 2.62600017e+00 2.61500001e+00 2.60500002e+00 2.60500002e+00 2.60500002e+00 2.60500002e+00 2.60500002e+00 2.60500002e+00 2.61500001e+00 2.61500001e+00 0. 0. 0. 0. 0. 2.44200015e+00 2.44200015e+00 2.44600010e+00 2.44600010e+00 2.45100021e+00 2.45100021e+00 2.42400002e+00 2.41100001e+00 2.40200019e+00 2.39300013e+00 2.39300013e+00 2.39300013e+00 2.38900018e+00 2.38900018e+00 2.39300013e+00 2.38900018e+00 2.38400006e+00 2.38400006e+00 2.38900018e+00 2.39700007e+00 2.40200019e+00 2.41900015e+00 2.43700004e+00 2.45100021e+00 2.45500016e+00 2.46000004e+00 2.46000004e+00 2.45500016e+00 2.44200015e+00 2.43700004e+00 2.43700004e+00 2.46000004e+00 2.46900010e+00 2.47800016e+00 2.47800016e+00 2.48800015e+00 2.48800015e+00 2.50600004e+00 2.50600004e+00 2.50600004e+00 0. 2.50600004e+00 2.50600004e+00 0. 2.50600004e+00 2.50600004e+00 2.51600003e+00 2.51600003e+00 0. 0. 0. 2.52100015e+00 2.47400022e+00 2.45500016e+00 2.44200015e+00 2.41900015e+00
    2.88300014e+00 2.88300014e+00 2.89600015e+00 2.92800021e+00 2.97400022e+00 3.00800014e+00 3.02800012e+00 3.02800012e+00 3.03500009e+00 3.02800012e+00 3.01500010e+00 2.97400022e+00 2.96700025e+00 2.96100020e+00 2.94700003e+00 2.94100022e+00 2.94100022e+00 2.94700003e+00 2.96100020e+00 2.95400023e+00 2.95400023e+00 2.96100020e+00 2.97400022e+00 2.97400022e+00 2.96100020e+00 2.94100022e+00 2.92100024e+00 2.90200019e+00 2.89600015e+00 2.88900018e+00 2.88900018e+00 2.88900018e+00 2.89600015e+00 2.88900018e+00 2.88900018e+00 2.90200019e+00 2.93400025e+00 2.93400025e+00 2.93400025e+00 2.93400025e+00 2.91500020e+00 2.89600015e+00 2.87100005e+00 2.84600019e+00 2.84600019e+00 2.85200024e+00 2.85200024e+00 2.85200024e+00 2.86400008e+00 2.87100005e+00 2.88900018e+00 2.88900018e+00 2.90900016e+00 2.91500020e+00 2.92800021e+00 2.93400025e+00 2.92800021e+00 2.92100024e+00 2.90900016e+00 2.90200019e+00 2.90200019e+00 2.90200019e+00 2.90900016e+00 2.91500020e+00 2.92100024e+00 2.92100024e+00 2.91500020e+00 2.90900016e+00 2.89600015e+00 2.89600015e+00 2.89600015e+00 2.88300014e+00 2.87700009e+00 2.87700009e+00 2.87700009e+00 2.87700009e+00 2.90200019e+00 2.92800021e+00 2.88300014e+00 2.78600001e+00 2.78600001e+00 2.82200003e+00 2.87700009e+00 2.88300014e+00 2.88900018e+00 2.88900018e+00 2.90900016e+00 2.92100024e+00 2.92100024e+00 2.90200019e+00 2.89600015e+00 2.88900018e+00 2.88900018e+00 0. 0. 0. 0. 0. 0. 0. 0. 0. 2.86400008e+00 2.86400008e+00 2.86400008e+00 2.86400008e+00 2.88300014e+00 2.88300014e+00 2.87700009e+00 2.87700009e+00 2.86400008e+00 2.85800004e+00 2.85800004e+00 2.85200024e+00 2.85200024e+00 2.85800004e+00 2.85800004e+00 2.93400025e+00 2.92800021e+00 2.91500020e+00 2.90900016e+00 2.90200019e+00 2.88900018e+00 2.88900018e+00 2.87700009e+00 2.87100005e+00 2.87100005e+00 2.85800004e+00 2.85200024e+00 2.85200024e+00 2.85200024e+00 2.85200024e+00 2.86400008e+00 2.86400008e+00 2.87100005e+00 2.88300014e+00 2.90900016e+00 2.90900016e+00 2.93400025e+00 2.94700003e+00 2.94700003e+00 2.93400025e+00 2.91500020e+00 2.90200019e+00 2.90200019e+00 2.90200019e+00 2.89600015e+00 2.89600015e+00 2.90200019e+00 2.90200019e+00 2.91500020e+00 2.90200019e+00 2.88300014e+00 2.87100005e+00 2.87100005e+00 2.85800004e+00 2.84000015e+00 2.84000015e+00 2.84000015e+00 2.83400011e+00 2.83400011e+00 2.83400011e+00 2.83400011e+00 2.84600019e+00 2.85800004e+00 2.86400008e+00 2.86400008e+00 2.87100005e+00 2.85800004e+00 2.85200024e+00 2.84600019e+00 2.84600019e+00 2.84600019e+00 2.84000015e+00 2.84000015e+00 2.84600019e+00 2.84600019e+00 2.85800004e+00 2.87700009e+00 2.88300014e+00 2.88900018e+00 2.89600015e+00 2.90200019e+00 2.92100024e+00 2.93400025e+00 2.94100022e+00 2.94100022e+00 2.93400025e+00 2.91500020e+00 2.90200019e+00 2.87100005e+00 2.85200024e+00 2.84000015e+00 2.82800007e+00 2.81600022e+00 2.81600022e+00 2.81600022e+00 2.81600022e+00 2.81600022e+00 2.82800007e+00 2.84600019e+00 2.85200024e+00 2.86400008e+00 2.87700009e+00 2.87100005e+00 2.87100005e+00 2.87100005e+00 2.87700009e+00 2.88300014e+00 2.88300014e+00 2.88300014e+00 2.88900018e+00 2.88900018e+00 2.88900018e+00 2.86400008e+00 2.86400008e+00 2.86400008e+00 2.88900018e+00 2.88900018e+00 2.91500020e+00 2.92800021e+00 2.93400025e+00 2.93400025e+00 2.95400023e+00 2.94100022e+00 2.92800021e+00 2.92800021e+00 2.93400025e+00 2.91500020e+00 2.86400008e+00 2.85800004e+00 2.85200024e+00 2.84600019e+00 2.84000015e+00 2.82800007e+00 2.82800007e+00 2.79800010e+00 2.70600009e+00 2.69000006e+00 2.67900014e+00 2.65700006e+00 2.64700007e+00 2.63600016e+00 2.62600017e+00 2.61000013e+00 2.60500002e+00 2.60500002e+00 2.60500002e+00 2.60500002e+00 2.60500002e+00 2.60500002e+00 2.61500001e+00 2.61500001e+00 0. 0. 0. 0. 2.45100021e+00 2.45100021e+00 2.45100021e+00 2.46000004e+00 2.45500016e+00 2.45500016e+00 2.45100021e+00 2.42400002e+00 2.41100001e+00 2.40200019e+00 2.39300013e+00 2.39300013e+00 2.39300013e+00 2.39300013e+00 2.39300013e+00 2.39700007e+00 2.39700007e+00 2.39700007e+00 2.39700007e+00 2.39700007e+00 2.40200019e+00 2.40600014e+00 2.41900015e+00 2.43700004e+00 2.45100021e+00 2.45100021e+00 2.46400023e+00 2.46400023e+00 2.46000004e+00 2.44600010e+00 2.44600010e+00 2.44600010e+00 2.46000004e+00 2.46900010e+00 2.47800016e+00 2.48300004e+00 2.49200010e+00 2.49200010e+00 2.51100016e+00 2.50600004e+00 2.50600004e+00 0. 0. 0. 0. 2.50600004e+00 2.50600004e+00 2.52100015e+00 2.51100016e+00 2.51100016e+00 0. 0. 2.48300004e+00 2.47400022e+00 2.45500016e+00 2.44600010e+00 2.43700004e+00
    2.87700009e+00 2.88300014e+00 2.89600015e+00 2.92100024e+00 2.96100020e+00 2.98100019e+00 3.00800014e+00 3.00800014e+00 3.02100015e+00 3.02100015e+00 3.00100017e+00 2.96100020e+00 2.94700003e+00 2.92100024e+00 2.90900016e+00 2.90900016e+00 2.90900016e+00 2.90900016e+00 2.92100024e+00 2.92800021e+00 2.92800021e+00 2.94100022e+00 2.96700025e+00 2.97400022e+00 2.97400022e+00 2.95400023e+00 2.93400025e+00 2.91500020e+00 2.90200019e+00 2.88900018e+00 2.88300014e+00 2.87700009e+00 2.87700009e+00 2.88900018e+00 2.88900018e+00 2.90900016e+00 2.94100022e+00 2.94700003e+00 2.94100022e+00 2.93400025e+00 2.89600015e+00 2.89600015e+00 2.85200024e+00 2.84000015e+00 2.84000015e+00 2.84000015e+00 2.84000015e+00 2.84600019e+00 2.85800004e+00 2.87100005e+00 2.88900018e+00 2.88900018e+00 2.91500020e+00 2.92100024e+00 2.94100022e+00 2.94100022e+00 2.92800021e+00 2.92100024e+00 2.90900016e+00 2.90900016e+00 2.90900016e+00 2.91500020e+00 2.91500020e+00 2.93400025e+00 2.93400025e+00 2.92800021e+00 2.88900018e+00 2.87700009e+00 2.87700009e+00 2.87700009e+00 2.87700009e+00 2.88300014e+00 2.87700009e+00 2.87700009e+00 2.87700009e+00 2.87700009e+00 2.87700009e+00 2.82800007e+00 2.79200006e+00 2.76900005e+00 2.76900005e+00 2.79200006e+00 2.84000015e+00 2.85800004e+00 2.87700009e+00 2.88900018e+00 2.90200019e+00 2.92100024e+00 2.92100024e+00 2.90200019e+00 2.89600015e+00 2.89600015e+00 0. 0. 0. 0. 0. 0. 0. 0. 0. 0. 0. 2.86400008e+00 2.86400008e+00 2.86400008e+00 2.88300014e+00 2.89600015e+00 2.89600015e+00 2.89600015e+00 2.88300014e+00 2.87100005e+00 2.87100005e+00 2.85200024e+00 2.85200024e+00 2.84600019e+00 2.84600019e+00 2.85200024e+00 2.92800021e+00 2.88300014e+00 2.88300014e+00 2.88300014e+00 2.88900018e+00 2.88900018e+00 2.88900018e+00 2.87700009e+00 2.87700009e+00 2.87700009e+00 2.87100005e+00 2.87100005e+00 2.87700009e+00 2.87700009e+00 2.87700009e+00 2.87700009e+00 2.88300014e+00 2.89600015e+00 2.91500020e+00 2.91500020e+00 2.92800021e+00 2.94100022e+00 2.94700003e+00 2.94100022e+00 2.91500020e+00 2.90900016e+00 2.90200019e+00 2.90200019e+00 2.90200019e+00 2.90200019e+00 2.90200019e+00 2.90200019e+00 2.90200019e+00 2.89600015e+00 2.88300014e+00 2.87100005e+00 2.87100005e+00 2.85800004e+00 2.84000015e+00 2.84000015e+00 2.84000015e+00 2.83400011e+00 2.83400011e+00 2.83400011e+00 2.83400011e+00 2.84600019e+00 2.85800004e+00 2.86400008e+00 2.87100005e+00 2.87700009e+00 2.86400008e+00 2.85800004e+00 2.85200024e+00 2.85200024e+00 2.84600019e+00 2.84000015e+00 2.84000015e+00 2.84600019e+00 2.84600019e+00 2.85800004e+00 2.87700009e+00 2.88900018e+00 2.89600015e+00 2.90900016e+00 2.90900016e+00 2.92100024e+00 2.92800021e+00 2.92800021e+00 2.91500020e+00 2.90900016e+00 2.89600015e+00 2.88300014e+00 2.87100005e+00 2.85800004e+00 2.85800004e+00 2.84600019e+00 2.84000015e+00 2.82800007e+00 2.82800007e+00 2.82800007e+00 2.82800007e+00 2.83400011e+00 2.84600019e+00 2.85200024e+00 2.86400008e+00 2.87700009e+00 2.87700009e+00 2.87700009e+00 2.87700009e+00 2.88900018e+00 2.88900018e+00 2.89600015e+00 2.89600015e+00 2.89600015e+00 2.89600015e+00 2.90200019e+00 2.88300014e+00 2.88300014e+00 2.88300014e+00 2.89600015e+00 2.89600015e+00 2.92100024e+00 2.94100022e+00 2.94100022e+00 2.95400023e+00 2.96700025e+00 2.97400022e+00 2.96700025e+00 2.95400023e+00 2.93400025e+00 2.91500020e+00 2.89600015e+00 2.87700009e+00 2.85800004e+00 2.85800004e+00 2.85200024e+00 2.83400011e+00 2.82200003e+00 2.79800010e+00 2.75700021e+00 2.70600009e+00 2.67900014e+00 2.66800022e+00 2.65200019e+00 2.64100003e+00 2.62600017e+00 2.61000013e+00 2.60500002e+00 2.60500002e+00 2.60500002e+00 2.60500002e+00 2.61000013e+00 2.61000013e+00 2.61500001e+00 2.62100005e+00 0. 0. 0. 0. 2.45100021e+00 2.45100021e+00 2.45500016e+00 2.46000004e+00 2.46400023e+00 2.46000004e+00 2.46000004e+00 2.45100021e+00 2.41500020e+00 2.41500020e+00 2.41100001e+00 2.40600014e+00 2.40200019e+00 2.40200019e+00 2.40200019e+00 2.40600014e+00 2.40200019e+00 2.39700007e+00 2.39700007e+00 2.40200019e+00 2.40200019e+00 2.40200019e+00 2.41500020e+00 2.42400002e+00 2.44200015e+00 2.44200015e+00 2.45100021e+00 2.45500016e+00 2.46000004e+00 2.44600010e+00 2.44600010e+00 2.45100021e+00 2.46400023e+00 2.47400022e+00 2.48300004e+00 2.48800015e+00 2.49700022e+00 2.49700022e+00 2.51100016e+00 2.51100016e+00 0. 0. 0. 0. 0. 0. 0. 0. 2.51100016e+00 2.49200010e+00 2.49200010e+00 2.49200010e+00 2.48300004e+00 2.47400022e+00 2.46400023e+00 2.45500016e+00 2.45100021e+00
    2.87700009e+00 2.88300014e+00 2.88900018e+00 2.90900016e+00 2.93400025e+00 2.94700003e+00 2.96700025e+00 2.98700023e+00 2.98700023e+00 3.00100017e+00 2.92100024e+00 2.90900016e+00 2.88900018e+00 2.88300014e+00 2.87700009e+00 2.87100005e+00 2.87100005e+00 2.87100005e+00 2.88900018e+00 2.90900016e+00 2.92100024e+00 2.93400025e+00 2.94700003e+00 2.96100020e+00 2.96100020e+00 2.94700003e+00 2.93400025e+00 2.91500020e+00 2.89600015e+00 2.88900018e+00 2.88300014e+00 2.87700009e+00 2.87700009e+00 2.88900018e+00 2.88900018e+00 2.90900016e+00 2.92800021e+00 2.92100024e+00 2.90900016e+00 2.88900018e+00 2.88900018e+00 2.89600015e+00 2.84000015e+00 2.83400011e+00 2.83400011e+00 2.84000015e+00 2.84000015e+00 2.84000015e+00 2.85800004e+00 2.87100005e+00 2.89600015e+00 2.89600015e+00 2.92100024e+00 2.93400025e+00 2.95400023e+00 2.96700025e+00 2.95400023e+00 2.94100022e+00 2.92800021e+00 2.92800021e+00 2.92800021e+00 2.92800021e+00 2.93400025e+00 2.94100022e+00 2.94100022e+00 2.92800021e+00 2.88900018e+00 2.87700009e+00 2.87700009e+00 2.87700009e+00 2.87700009e+00 2.88300014e+00 2.87700009e+00 2.87700009e+00 2.87700009e+00 2.87700009e+00 2.87700009e+00 2.82800007e+00 2.79200006e+00 2.76900005e+00 2.76900005e+00 2.79200006e+00 2.84000015e+00 2.85800004e+00 2.87700009e+00 2.90200019e+00 2.90200019e+00 2.92800021e+00 2.94700003e+00 2.92800021e+00 2.92100024e+00 2.92100024e+00 2.94700003e+00 0. 0. 0. 0. 0. 0. 0. 0. 0. 0. 2.86400008e+00 2.86400008e+00 2.86400008e+00 2.88300014e+00 2.89600015e+00 2.89600015e+00 2.89600015e+00 2.88900018e+00 2.88300014e+00 2.87700009e+00 2.86400008e+00 2.85200024e+00 2.84600019e+00 2.84600019e+00 2.85200024e+00 2.87100005e+00 2.87100005e+00 2.87100005e+00 2.88300014e+00 2.88300014e+00 2.88900018e+00 2.88900018e+00 2.87700009e+00 2.87700009e+00 2.88900018e+00 2.88300014e+00 2.88300014e+00 2.88300014e+00 2.88300014e+00 2.88900018e+00 2.88900018e+00 2.88900018e+00 2.89600015e+00 2.91500020e+00 2.91500020e+00 2.92100024e+00 2.93400025e+00 2.93400025e+00 2.94100022e+00 2.90200019e+00 2.89600015e+00 2.89600015e+00 2.90200019e+00 2.88300014e+00 2.88300014e+00 2.87700009e+00 2.86400008e+00 2.86400008e+00 2.87100005e+00 2.87100005e+00 2.87100005e+00 2.87700009e+00 2.85800004e+00 2.85200024e+00 2.85200024e+00 2.84600019e+00 2.84000015e+00 2.84000015e+00 2.84000015e+00 2.84000015e+00 2.85200024e+00 2.86400008e+00 2.87100005e+00 2.88900018e+00 2.88900018e+00 2.88300014e+00 2.87100005e+00 2.85800004e+00 2.85800004e+00 2.85800004e+00 2.85800004e+00 2.85200024e+00 2.85200024e+00 2.85200024e+00 2.87100005e+00 2.88300014e+00 2.89600015e+00 2.90200019e+00 2.90900016e+00 2.90900016e+00 2.92100024e+00 2.92800021e+00 2.92800021e+00 2.90200019e+00 2.88900018e+00 2.87700009e+00 2.87100005e+00 2.85800004e+00 2.84600019e+00 2.84000015e+00 2.84000015e+00 2.84000015e+00 2.83400011e+00 2.83400011e+00 2.83400011e+00 2.83400011e+00 2.83400011e+00 2.84600019e+00 2.85200024e+00 2.86400008e+00 2.87700009e+00 2.88300014e+00 2.88900018e+00 2.89600015e+00 2.89600015e+00 2.90900016e+00 2.90900016e+00 2.91500020e+00 2.91500020e+00 2.91500020e+00 2.92800021e+00 2.92800021e+00 2.92800021e+00 2.93400025e+00 2.94100022e+00 2.95400023e+00 2.96700025e+00 2.96100020e+00 2.96100020e+00 2.96700025e+00 2.96700025e+00 2.97400022e+00 2.96700025e+00 2.96100020e+00 2.94700003e+00 2.92800021e+00 2.90200019e+00 2.87700009e+00 2.85800004e+00 2.85800004e+00 2.84600019e+00 2.82800007e+00 2.81000018e+00 2.78600001e+00 2.75700021e+00 2.73400021e+00 2.69500017e+00 2.69500017e+00 2.66800022e+00 2.65200019e+00 2.63600016e+00 2.62100005e+00 2.62100005e+00 2.62100005e+00 2.62100005e+00 2.62100005e+00 2.62100005e+00 2.62600017e+00 2.62100005e+00 2.62100005e+00 0. 0. 0. 0. 0. 2.46400023e+00 2.46400023e+00 2.46400023e+00 2.46900010e+00 2.46400023e+00 2.46400023e+00 2.45500016e+00 2.43700004e+00 2.42400002e+00 2.41900015e+00 2.41100001e+00 2.40600014e+00 2.40600014e+00 2.40600014e+00 2.41100001e+00 2.41100001e+00 2.40200019e+00 2.39300013e+00 2.38400006e+00 2.38400006e+00 2.39300013e+00 2.40200019e+00 2.41100001e+00 2.42400002e+00 2.44200015e+00 2.44200015e+00 2.44600010e+00 2.45100021e+00 2.44600010e+00 2.44600010e+00 2.45100021e+00 2.46900010e+00 2.47400022e+00 2.48300004e+00 2.48800015e+00 2.50200009e+00 2.50200009e+00 2.51100016e+00 2.51100016e+00 2.51600003e+00 0. 0. 0. 0. 0. 0. 0. 0. 2.49200010e+00 2.49200010e+00 2.49200010e+00 2.48800015e+00 2.48300004e+00 2.47400022e+00 2.46400023e+00 2.44600010e+00
    2.87700009e+00 2.88300014e+00 2.88900018e+00 2.90900016e+00 2.93400025e+00 2.94700003e+00 2.96700025e+00 2.98700023e+00 2.98700023e+00 3.00100017e+00 2.92100024e+00 2.90900016e+00 2.88900018e+00 2.88300014e+00 2.87700009e+00 2.87100005e+00 2.87100005e+00 2.87100005e+00 2.88900018e+00 2.90900016e+00 2.92100024e+00 2.93400025e+00 2.94700003e+00 2.96100020e+00 2.96100020e+00 2.94700003e+00 2.93400025e+00 2.91500020e+00 2.89600015e+00 2.88900018e+00 2.88300014e+00 2.87700009e+00 2.87700009e+00 2.89600015e+00 2.89600015e+00 2.90900016e+00 2.92800021e+00 2.92100024e+00 2.90900016e+00 2.88900018e+00 2.88900018e+00 0. 2.84000015e+00 2.83400011e+00 2.83400011e+00 2.84000015e+00 2.84000015e+00 2.84000015e+00 2.85800004e+00 2.87100005e+00 2.89600015e+00 2.89600015e+00 2.92100024e+00 2.94100022e+00 2.96700025e+00 2.98100019e+00 2.96100020e+00 2.96100020e+00 2.94700003e+00 2.94700003e+00 2.94700003e+00 2.94700003e+00 2.94100022e+00 2.94100022e+00 2.94100022e+00 2.92800021e+00 2.92800021e+00 0. 2.88300014e+00 2.88300014e+00 2.88300014e+00 2.88900018e+00 2.88300014e+00 2.88300014e+00 2.88900018e+00 2.88900018e+00 2.88900018e+00 2.83400011e+00 2.80400014e+00 2.79200006e+00 2.79200006e+00 2.81000018e+00 2.84600019e+00 2.87100005e+00 2.88300014e+00 2.90900016e+00 2.90900016e+00 2.93400025e+00 2.94700003e+00 2.96100020e+00 2.96100020e+00 2.94700003e+00 2.94700003e+00 0. 0. 0. 0. 0. 0. 0. 0. 0. 0. 0. 2.87700009e+00 2.87700009e+00 2.88900018e+00 2.90200019e+00 2.90200019e+00 2.90200019e+00 2.89600015e+00 2.88900018e+00 2.88900018e+00 2.88300014e+00 2.87700009e+00 2.86400008e+00 2.85800004e+00 2.85800004e+00 2.87100005e+00 2.87100005e+00 2.87100005e+00 2.88300014e+00 2.88300014e+00 2.88900018e+00 2.88900018e+00 2.88900018e+00 2.88900018e+00 2.90200019e+00 2.89600015e+00 2.88300014e+00 2.88300014e+00 2.88900018e+00 2.89600015e+00 2.89600015e+00 2.90200019e+00 2.91500020e+00 2.91500020e+00 2.91500020e+00 2.92100024e+00 2.93400025e+00 2.93400025e+00 0. 2.90200019e+00 2.89600015e+00 2.89600015e+00 2.90200019e+00 2.88300014e+00 2.88300014e+00 2.87700009e+00 2.86400008e+00 2.86400008e+00 2.87100005e+00 2.87100005e+00 2.87100005e+00 2.87700009e+00 2.86400008e+00 2.86400008e+00 2.86400008e+00 2.85800004e+00 2.85800004e+00 2.85800004e+00 2.85800004e+00 2.85800004e+00 2.87100005e+00 2.87700009e+00 2.89600015e+00 2.90900016e+00 2.90900016e+00 2.90200019e+00 2.88900018e+00 2.88300014e+00 2.87100005e+00 2.85800004e+00 2.85800004e+00 2.85200024e+00 2.85200024e+00 2.85200024e+00 2.87700009e+00 2.88900018e+00 2.90900016e+00 2.91500020e+00 2.92100024e+00 2.92100024e+00 2.92800021e+00 2.92800021e+00 2.92800021e+00 2.90200019e+00 2.88900018e+00 2.87700009e+00 2.87100005e+00 2.85800004e+00 2.84600019e+00 2.84000015e+00 2.84000015e+00 2.84000015e+00 2.84000015e+00 2.84000015e+00 2.83400011e+00 2.83400011e+00 2.83400011e+00 2.84600019e+00 2.85200024e+00 2.86400008e+00 2.87700009e+00 2.88300014e+00 2.88900018e+00 2.89600015e+00 2.89600015e+00 2.90900016e+00 2.91500020e+00 2.92100024e+00 2.92100024e+00 2.92800021e+00 2.94100022e+00 2.93400025e+00 2.93400025e+00 2.94700003e+00 2.94700003e+00 2.96100020e+00 2.96700025e+00 2.96100020e+00 2.96100020e+00 2.96700025e+00 2.96700025e+00 2.97400022e+00 2.96700025e+00 2.96100020e+00 2.94700003e+00 2.93400025e+00 2.91500020e+00 2.88900018e+00 2.87700009e+00 2.86400008e+00 2.84600019e+00 2.82800007e+00 2.81000018e+00 2.78600001e+00 2.75700021e+00 2.73400021e+00 2.71700025e+00 2.70100021e+00 2.66800022e+00 2.65700006e+00 2.64700007e+00 2.64700007e+00 2.64100003e+00 2.63100004e+00 2.62600017e+00 2.62600017e+00 2.62600017e+00 2.62600017e+00 2.62600017e+00 0. 0. 0. 0. 0. 0. 2.47800016e+00 2.47800016e+00 2.47800016e+00 2.47400022e+00 2.46900010e+00 2.46400023e+00 2.45500016e+00 2.44200015e+00 2.43700004e+00 2.42800021e+00 2.42400002e+00 2.42400002e+00 2.41900015e+00 2.41500020e+00 2.41500020e+00 2.41100001e+00 2.40200019e+00 2.39300013e+00 2.38400006e+00 2.38400006e+00 2.39300013e+00 2.40200019e+00 2.41100001e+00 2.42400002e+00 2.44200015e+00 2.44200015e+00 2.44600010e+00 2.45100021e+00 2.44600010e+00 2.44600010e+00 2.45100021e+00 2.46900010e+00 2.47800016e+00 2.48800015e+00 2.49700022e+00 2.51100016e+00 2.51100016e+00 2.52100015e+00 2.51600003e+00 2.51600003e+00 0. 0. 0. 0. 0. 0. 0. 0. 2.49200010e+00 2.49200010e+00 2.49200010e+00 2.48800015e+00 2.48300004e+00 2.47400022e+00 2.46400023e+00 2.44600010e+00
    2.87700009e+00 2.88300014e+00 2.88900018e+00 2.90200019e+00 2.92100024e+00 2.93400025e+00 2.93400025e+00 2.94700003e+00 2.96100020e+00 2.95400023e+00 2.92100024e+00 2.90900016e+00 2.88900018e+00 2.88300014e+00 2.87700009e+00 2.87100005e+00 2.87100005e+00 2.87100005e+00 2.88300014e+00 2.88900018e+00 2.90200019e+00 2.91500020e+00 2.93400025e+00 2.94700003e+00 2.94700003e+00 2.94100022e+00 2.92800021e+00 2.91500020e+00 2.89600015e+00 2.88900018e+00 2.88300014e+00 2.87700009e+00 2.87700009e+00 2.88300014e+00 2.89600015e+00 2.90900016e+00 2.92800021e+00 2.92100024e+00 2.90900016e+00 2.88900018e+00 2.88900018e+00 2.84000015e+00 2.83400011e+00 2.83400011e+00 2.83400011e+00 2.83400011e+00 2.83400011e+00 2.84000015e+00 2.85800004e+00 2.87100005e+00 2.89600015e+00 2.89600015e+00 2.92100024e+00 2.94100022e+00 2.96100020e+00 2.98100019e+00 2.96100020e+00 2.96100020e+00 2.94700003e+00 2.94700003e+00 2.94700003e+00 2.94700003e+00 2.94100022e+00 2.93400025e+00 2.93400025e+00 2.92800021e+00 2.88900018e+00 2.88900018e+00 2.88300014e+00 2.88300014e+00 2.88300014e+00 2.88900018e+00 2.88300014e+00 2.88300014e+00 2.88900018e+00 2.88900018e+00 2.87700009e+00 2.83400011e+00 2.80400014e+00 2.79200006e+00 2.79200006e+00 2.81000018e+00 2.84600019e+00 2.86400008e+00 2.87700009e+00 2.90900016e+00 2.90900016e+00 2.93400025e+00 2.94700003e+00 2.95400023e+00 2.95400023e+00 2.94700003e+00 2.94700003e+00 0. 2.92800021e+00 2.92800021e+00 0. 0. 0. 0. 0. 0. 0. 0. 2.87700009e+00 2.87700009e+00 2.88300014e+00 2.88900018e+00 2.88900018e+00 2.89600015e+00 2.89600015e+00 2.88900018e+00 2.88900018e+00 2.88300014e+00 2.87700009e+00 2.86400008e+00 2.85800004e+00 2.85800004e+00 2.87100005e+00 2.87100005e+00 2.87100005e+00 2.87700009e+00 2.88300014e+00 2.88900018e+00 2.88900018e+00 2.88900018e+00 2.88900018e+00 2.90200019e+00 2.89600015e+00 2.88300014e+00 2.88300014e+00 2.88900018e+00 2.89600015e+00 2.89600015e+00 2.90200019e+00 2.90900016e+00 2.90900016e+00 2.91500020e+00 2.91500020e+00 2.93400025e+00 2.93400025e+00 0. 2.90200019e+00 2.89600015e+00 2.89600015e+00 2.90200019e+00 2.88300014e+00 2.87700009e+00 2.87700009e+00 2.85800004e+00 2.85800004e+00 2.85800004e+00 2.86400008e+00 2.86400008e+00 2.87100005e+00 2.86400008e+00 2.86400008e+00 2.86400008e+00 2.85800004e+00 2.85800004e+00 2.85800004e+00 2.85200024e+00 2.85200024e+00 2.86400008e+00 2.87100005e+00 2.88300014e+00 2.90200019e+00 2.90900016e+00 2.90200019e+00 2.88900018e+00 2.88300014e+00 2.87100005e+00 2.85800004e+00 2.85800004e+00 2.85200024e+00 2.85200024e+00 2.85200024e+00 2.87700009e+00 2.88900018e+00 2.90900016e+00 2.91500020e+00 2.92100024e+00 2.92100024e+00 2.92100024e+00 2.92100024e+00 2.92100024e+00 2.89600015e+00 2.88300014e+00 2.87100005e+00 2.85800004e+00 2.85800004e+00 2.84600019e+00 2.84000015e+00 2.84000015e+00 2.84000015e+00 2.84000015e+00 2.84000015e+00 2.83400011e+00 2.83400011e+00 2.83400011e+00 2.84600019e+00 2.85200024e+00 2.86400008e+00 2.87700009e+00 2.88300014e+00 2.88900018e+00 2.89600015e+00 2.89600015e+00 2.90900016e+00 2.91500020e+00 2.92100024e+00 2.92100024e+00 2.92800021e+00 2.94100022e+00 2.93400025e+00 2.93400025e+00 2.94700003e+00 2.94700003e+00 2.95400023e+00 2.95400023e+00 2.96100020e+00 2.96100020e+00 2.96100020e+00 2.96100020e+00 2.96100020e+00 2.96100020e+00 2.96100020e+00 2.94700003e+00 2.92800021e+00 2.91500020e+00 2.88300014e+00 2.87100005e+00 2.85800004e+00 2.83400011e+00 2.81600022e+00 2.79800010e+00 2.77400017e+00 2.74600005e+00 2.72900009e+00 2.71700025e+00 2.70100021e+00 2.66800022e+00 2.65700006e+00 2.64700007e+00 2.64700007e+00 2.64100003e+00 2.63100004e+00 2.62600017e+00 2.62600017e+00 2.62600017e+00 2.62600017e+00 2.62600017e+00 0. 0. 0. 0. 0. 0. 2.47800016e+00 2.47800016e+00 2.47800016e+00 2.47400022e+00 2.46900010e+00 2.46400023e+00 2.45500016e+00 2.44200015e+00 2.43700004e+00 2.42800021e+00 2.42400002e+00 2.41900015e+00 2.41500020e+00 2.41100001e+00 2.41100001e+00 2.40600014e+00 2.39300013e+00 2.38400006e+00 2.38000011e+00 2.38000011e+00 2.38900018e+00 2.39300013e+00 2.40200019e+00 2.41500020e+00 2.42400002e+00 2.43300009e+00 2.43300009e+00 2.42400002e+00 2.41900015e+00 2.41900015e+00 2.43700004e+00 2.46400023e+00 2.47800016e+00 2.48800015e+00 2.49700022e+00 2.51100016e+00 2.51100016e+00 2.51600003e+00 2.51600003e+00 2.51600003e+00 0. 0. 0. 0. 0. 2.46000004e+00 2.46000004e+00 2.46900010e+00 2.47800016e+00 2.48300004e+00 2.48800015e+00 2.48300004e+00 2.48300004e+00 2.46900010e+00 2.46400023e+00 2.44600010e+00
    2.87700009e+00 2.88300014e+00 2.88900018e+00 2.90200019e+00 2.92100024e+00 2.92100024e+00 2.92100024e+00 2.92100024e+00 2.92800021e+00 2.94100022e+00 2.91500020e+00 2.90200019e+00 2.88900018e+00 2.88300014e+00 2.86400008e+00 2.85200024e+00 2.85200024e+00 2.86400008e+00 2.86400008e+00 2.87100005e+00 2.88300014e+00 2.89600015e+00 2.90900016e+00 2.92800021e+00 2.92800021e+00 2.92800021e+00 2.92100024e+00 2.91500020e+00 2.89600015e+00 2.88900018e+00 2.88300014e+00 2.88300014e+00 2.88300014e+00 2.88300014e+00 2.90200019e+00 2.91500020e+00 2.92100024e+00 2.92800021e+00 2.92800021e+00 0. 0. 2.84000015e+00 2.83400011e+00 2.83400011e+00 2.83400011e+00 2.83400011e+00 2.83400011e+00 2.84000015e+00 2.85800004e+00 2.87100005e+00 2.89600015e+00 2.89600015e+00 2.92100024e+00 2.94100022e+00 2.96100020e+00 2.98100019e+00 2.97400022e+00 2.97400022e+00 2.96100020e+00 2.96100020e+00 2.96100020e+00 2.96100020e+00 2.94700003e+00 2.93400025e+00 2.93400025e+00 2.92800021e+00 2.88900018e+00 2.88900018e+00 2.88300014e+00 2.88300014e+00 2.88900018e+00 2.88900018e+00 2.88900018e+00 2.88900018e+00 2.89600015e+00 2.89600015e+00 2.87700009e+00 2.84600019e+00 2.82200003e+00 2.81600022e+00 2.81600022e+00 2.82200003e+00 2.85200024e+00 2.86400008e+00 2.87700009e+00 2.90200019e+00 2.90200019e+00 2.93400025e+00 2.94700003e+00 2.94700003e+00 2.94700003e+00 0. 0. 2.92800021e+00 2.92100024e+00 2.92100024e+00 0. 0. 0. 0. 0. 0. 0. 2.88300014e+00 2.88300014e+00 2.87700009e+00 2.87700009e+00 2.87100005e+00 2.87100005e+00 2.87700009e+00 2.88900018e+00 2.88900018e+00 2.90200019e+00 2.90900016e+00 2.90900016e+00 2.90200019e+00 2.88300014e+00 2.87700009e+00 2.87100005e+00 2.87100005e+00 2.87700009e+00 2.87700009e+00 2.88300014e+00 2.89600015e+00 2.89600015e+00 2.90200019e+00 2.90200019e+00 2.91500020e+00 2.90200019e+00 2.89600015e+00 2.89600015e+00 2.89600015e+00 2.89600015e+00 2.89600015e+00 2.90200019e+00 2.90900016e+00 2.90900016e+00 2.91500020e+00 2.91500020e+00 0. 0. 0. 0. 2.89600015e+00 2.87700009e+00 2.87700009e+00 2.88900018e+00 2.87700009e+00 2.87700009e+00 2.85800004e+00 2.85800004e+00 2.85800004e+00 2.86400008e+00 2.86400008e+00 2.87100005e+00 2.87100005e+00 2.87100005e+00 2.87100005e+00 2.87100005e+00 2.85800004e+00 2.85800004e+00 2.85200024e+00 2.85200024e+00 2.86400008e+00 2.87100005e+00 2.88300014e+00 2.90200019e+00 2.90900016e+00 2.90200019e+00 2.88900018e+00 2.88900018e+00 2.88300014e+00 2.87100005e+00 2.86400008e+00 2.86400008e+00 2.86400008e+00 2.86400008e+00 2.87700009e+00 2.89600015e+00 2.90900016e+00 2.91500020e+00 2.92800021e+00 2.92800021e+00 2.92100024e+00 2.92100024e+00 2.91500020e+00 2.89600015e+00 2.88300014e+00 2.85800004e+00 2.85200024e+00 2.85200024e+00 2.84600019e+00 2.84000015e+00 2.84000015e+00 2.84000015e+00 2.84000015e+00 2.84000015e+00 2.84000015e+00 2.84000015e+00 2.84600019e+00 2.85200024e+00 2.85200024e+00 2.86400008e+00 2.88300014e+00 2.89600015e+00 2.90200019e+00 2.90900016e+00 2.90900016e+00 2.92100024e+00 2.92800021e+00 2.93400025e+00 2.94100022e+00 2.94100022e+00 2.94700003e+00 2.94700003e+00 2.95400023e+00 2.95400023e+00 2.95400023e+00 2.95400023e+00 2.95400023e+00 2.95400023e+00 2.95400023e+00 2.94700003e+00 2.94700003e+00 2.94700003e+00 2.95400023e+00 2.95400023e+00 2.94700003e+00 2.92800021e+00 2.91500020e+00 2.88300014e+00 2.87100005e+00 2.85800004e+00 2.83400011e+00 2.81600022e+00 2.79800010e+00 2.77400017e+00 2.74600005e+00 2.72900009e+00 2.71700025e+00 2.70600009e+00 2.69000006e+00 2.67300010e+00 2.66800022e+00 2.66300011e+00 2.65700006e+00 2.65200019e+00 2.64100003e+00 2.64100003e+00 2.64100003e+00 2.63600016e+00 2.63600016e+00 0. 0. 0. 0. 0. 0. 2.48300004e+00 2.48300004e+00 2.48300004e+00 2.47800016e+00 2.46900010e+00 2.46900010e+00 2.46000004e+00 2.44200015e+00 2.43700004e+00 2.43300009e+00 2.43300009e+00 2.41900015e+00 2.41500020e+00 2.41100001e+00 2.41100001e+00 2.40600014e+00 2.39300013e+00 2.38400006e+00 2.38000011e+00 2.38000011e+00 2.38900018e+00 2.39300013e+00 2.40200019e+00 2.40200019e+00 2.40200019e+00 2.40600014e+00 2.39300013e+00 2.39300013e+00 2.39300013e+00 2.39300013e+00 2.41500020e+00 2.44600010e+00 2.46400023e+00 2.48300004e+00 2.49700022e+00 2.51100016e+00 2.51100016e+00 2.51600003e+00 2.51600003e+00 2.51600003e+00 2.51600003e+00 0. 0. 0. 0. 2.44600010e+00 2.44600010e+00 2.45100021e+00 2.46400023e+00 2.47400022e+00 2.47800016e+00 2.47400022e+00 2.46900010e+00 2.46400023e+00 2.45500016e+00 2.44600010e+00
    2.89600015e+00 2.89600015e+00 2.89600015e+00 2.91500020e+00 2.90900016e+00 2.90200019e+00 2.90200019e+00 2.90200019e+00 2.90200019e+00 2.91500020e+00 2.90200019e+00 2.90200019e+00 2.88900018e+00 2.88300014e+00 2.86400008e+00 2.85200024e+00 2.85200024e+00 2.86400008e+00 2.86400008e+00 2.87100005e+00 2.87700009e+00 2.88900018e+00 2.90200019e+00 2.92100024e+00 2.92100024e+00 2.91500020e+00 2.90900016e+00 2.90200019e+00 2.89600015e+00 2.88300014e+00 2.88300014e+00 2.88300014e+00 2.88900018e+00 2.88900018e+00 2.90200019e+00 2.91500020e+00 2.92100024e+00 2.92100024e+00 0. 0. 0. 2.83400011e+00 2.82800007e+00 2.82800007e+00 2.83400011e+00 2.84600019e+00 2.84600019e+00 2.85800004e+00 2.87700009e+00 2.89600015e+00 2.89600015e+00 2.92100024e+00 2.95400023e+00 2.97400022e+00 2.98700023e+00 3.00100017e+00 2.99400020e+00 2.98700023e+00 2.96700025e+00 2.96700025e+00 2.96700025e+00 2.96700025e+00 2.94700003e+00 2.93400025e+00 2.93400025e+00 2.92800021e+00 2.91500020e+00 2.91500020e+00 2.88900018e+00 2.88900018e+00 2.89600015e+00 2.89600015e+00 2.89600015e+00 2.89600015e+00 2.90900016e+00 2.90200019e+00 2.88300014e+00 2.86400008e+00 2.84600019e+00 2.84000015e+00 2.84000015e+00 2.84000015e+00 2.85800004e+00 2.86400008e+00 2.87100005e+00 2.88900018e+00 2.88900018e+00 2.91500020e+00 2.94100022e+00 2.94700003e+00 2.94700003e+00 0. 0. 2.92800021e+00 2.92100024e+00 2.92100024e+00 2.90900016e+00 2.90900016e+00 2.91500020e+00 2.88900018e+00 2.87100005e+00 2.86400008e+00 2.86400008e+00 2.87100005e+00 2.87100005e+00 2.86400008e+00 2.86400008e+00 2.85800004e+00 2.85800004e+00 2.85800004e+00 2.87100005e+00 2.88300014e+00 2.88300014e+00 2.89600015e+00 2.89600015e+00 2.88300014e+00 2.87100005e+00 2.85800004e+00 2.85800004e+00 2.86400008e+00 2.86400008e+00 2.87100005e+00 2.87100005e+00 2.88300014e+00 2.90200019e+00 2.90200019e+00 2.90200019e+00 2.93400025e+00 0. 1.57900012e+00 1.57900012e+00 2.89600015e+00 2.90200019e+00 2.90900016e+00 2.91500020e+00 2.92100024e+00 2.92100024e+00 2.92800021e+00 2.92800021e+00 0. 0. 0. 0. 0. 2.87700009e+00 2.87700009e+00 2.88900018e+00 2.87700009e+00 2.87700009e+00 2.87100005e+00 2.86400008e+00 2.86400008e+00 2.87100005e+00 2.87100005e+00 2.88300014e+00 2.88300014e+00 2.88300014e+00 2.88300014e+00 2.88900018e+00 2.88300014e+00 2.87700009e+00 2.87100005e+00 2.87100005e+00 2.87700009e+00 2.88300014e+00 2.88900018e+00 2.90200019e+00 2.90900016e+00 2.91500020e+00 2.90200019e+00 2.90200019e+00 2.90900016e+00 2.90200019e+00 2.89600015e+00 2.88900018e+00 2.88900018e+00 2.88900018e+00 2.90200019e+00 2.90900016e+00 2.91500020e+00 2.92800021e+00 2.92800021e+00 2.92100024e+00 2.91500020e+00 2.91500020e+00 2.90900016e+00 2.88900018e+00 2.87700009e+00 2.85800004e+00 2.85200024e+00 2.85200024e+00 2.84600019e+00 2.84600019e+00 2.84600019e+00 2.84600019e+00 2.84600019e+00 2.84600019e+00 2.84600019e+00 2.85200024e+00 2.85200024e+00 2.85200024e+00 2.85800004e+00 2.85800004e+00 2.87100005e+00 2.88300014e+00 2.89600015e+00 2.90900016e+00 2.90900016e+00 2.92800021e+00 2.94100022e+00 2.95400023e+00 2.94700003e+00 2.94700003e+00 2.94100022e+00 2.94100022e+00 2.95400023e+00 2.93400025e+00 2.91500020e+00 2.91500020e+00 2.92100024e+00 2.92100024e+00 2.90900016e+00 2.90900016e+00 2.91500020e+00 2.91500020e+00 2.92800021e+00 2.93400025e+00 2.93400025e+00 2.92100024e+00 2.91500020e+00 2.88900018e+00 2.87100005e+00 2.85800004e+00 2.84000015e+00 2.81600022e+00 2.80400014e+00 2.78000021e+00 2.75700021e+00 2.74000025e+00 2.72900009e+00 2.71700025e+00 2.70100021e+00 2.67900014e+00 2.67300010e+00 2.66800022e+00 2.66300011e+00 2.66300011e+00 2.65200019e+00 2.65200019e+00 2.65200019e+00 2.65200019e+00 2.65200019e+00 0. 0. 0. 0. 0. 0. 0. 2.49200010e+00 2.49200010e+00 2.47800016e+00 2.46900010e+00 2.46900010e+00 2.45500016e+00 2.43300009e+00 2.43300009e+00 2.44200015e+00 2.44600010e+00 2.44600010e+00 2.42800021e+00 2.41900015e+00 2.41900015e+00 2.41500020e+00 2.40600014e+00 2.39300013e+00 2.39300013e+00 2.39300013e+00 2.40200019e+00 2.40200019e+00 2.40200019e+00 2.40200019e+00 2.40200019e+00 2.40200019e+00 2.39300013e+00 2.39300013e+00 2.39300013e+00 2.39300013e+00 2.41100001e+00 2.42400002e+00 2.44200015e+00 2.46400023e+00 2.48800015e+00 2.50600004e+00 2.50600004e+00 2.51100016e+00 2.51100016e+00 2.51100016e+00 2.51600003e+00 0. 0. 2.42800021e+00 2.42800021e+00 2.43300009e+00 2.44600010e+00 2.45100021e+00 2.45500016e+00 2.46400023e+00 2.46900010e+00 2.46400023e+00 2.46400023e+00 2.45500016e+00 2.45500016e+00 2.43700004e+00
    2.90200019e+00 2.90200019e+00 2.90900016e+00 2.91500020e+00 2.90900016e+00 2.89600015e+00 2.88900018e+00 2.88900018e+00 2.88900018e+00 2.90900016e+00 2.89600015e+00 2.89600015e+00 2.89600015e+00 2.90200019e+00 2.87700009e+00 2.85800004e+00 2.85800004e+00 2.86400008e+00 2.86400008e+00 2.87100005e+00 2.87700009e+00 2.88900018e+00 2.90200019e+00 2.92100024e+00 2.92100024e+00 2.91500020e+00 2.90900016e+00 2.90200019e+00 2.89600015e+00 2.88300014e+00 2.88300014e+00 2.88300014e+00 2.88900018e+00 2.88900018e+00 2.90200019e+00 2.91500020e+00 2.92100024e+00 2.92100024e+00 0. 0. 2.84600019e+00 2.83400011e+00 2.82800007e+00 2.82800007e+00 2.83400011e+00 2.84600019e+00 2.85200024e+00 2.86400008e+00 2.88300014e+00 2.90200019e+00 2.90200019e+00 2.92800021e+00 2.94700003e+00 2.96700025e+00 2.98100019e+00 2.99400020e+00 2.99400020e+00 2.99400020e+00 3.00100017e+00 3.00100017e+00 2.99400020e+00 2.99400020e+00 2.99400020e+00 2.98100019e+00 2.97400022e+00 2.95400023e+00 2.92800021e+00 2.90900016e+00 2.90200019e+00 2.90200019e+00 2.90900016e+00 2.90200019e+00 2.89600015e+00 2.89600015e+00 2.90900016e+00 2.90200019e+00 2.88300014e+00 2.86400008e+00 2.85200024e+00 2.84600019e+00 2.84600019e+00 2.84600019e+00 2.85800004e+00 2.86400008e+00 2.87100005e+00 2.87700009e+00 2.87700009e+00 2.88900018e+00 2.90200019e+00 2.94700003e+00 2.96100020e+00 2.96700025e+00 2.96700025e+00 2.95400023e+00 2.94100022e+00 2.92100024e+00 2.90900016e+00 2.90900016e+00 2.90200019e+00 2.88900018e+00 2.87100005e+00 2.86400008e+00 2.86400008e+00 2.86400008e+00 2.86400008e+00 2.85800004e+00 2.85200024e+00 2.84600019e+00 2.84600019e+00 2.84600019e+00 2.85800004e+00 2.86400008e+00 2.87700009e+00 2.88300014e+00 2.88900018e+00 2.88300014e+00 2.87100005e+00 2.85800004e+00 2.85800004e+00 2.86400008e+00 2.86400008e+00 2.87100005e+00 2.87100005e+00 2.88300014e+00 2.90200019e+00 2.90200019e+00 2.90200019e+00 0. 0. 1.57900012e+00 1.57900012e+00 1.58700013e+00 2.89600015e+00 2.90200019e+00 2.90200019e+00 2.91500020e+00 2.91500020e+00 2.92800021e+00 2.92800021e+00 0. 0. 0. 0. 2.86400008e+00 2.86400008e+00 2.87700009e+00 2.88900018e+00 2.87700009e+00 2.87700009e+00 2.87100005e+00 2.86400008e+00 2.86400008e+00 2.87100005e+00 2.87100005e+00 2.87700009e+00 2.88300014e+00 2.88300014e+00 2.88300014e+00 2.88900018e+00 2.88300014e+00 2.88300014e+00 2.87700009e+00 2.87700009e+00 2.88300014e+00 2.88900018e+00 2.89600015e+00 2.90200019e+00 2.90900016e+00 2.91500020e+00 2.90200019e+00 2.90200019e+00 2.90900016e+00 2.90200019e+00 2.89600015e+00 2.88900018e+00 2.88900018e+00 2.88900018e+00 2.90900016e+00 2.90900016e+00 2.91500020e+00 2.92100024e+00 2.92100024e+00 2.91500020e+00 2.90200019e+00 2.90200019e+00 2.88900018e+00 2.87700009e+00 2.87100005e+00 2.86400008e+00 2.85200024e+00 2.85200024e+00 2.85200024e+00 2.85200024e+00 2.85200024e+00 2.85200024e+00 2.85800004e+00 2.85200024e+00 2.85200024e+00 2.85200024e+00 2.85200024e+00 2.85800004e+00 2.85800004e+00 2.85800004e+00 2.87100005e+00 2.88300014e+00 2.89600015e+00 2.90900016e+00 2.90900016e+00 2.92800021e+00 2.94100022e+00 2.94700003e+00 2.94100022e+00 2.94100022e+00 2.93400025e+00 2.93400025e+00 2.95400023e+00 2.91500020e+00 2.89600015e+00 2.89600015e+00 2.90200019e+00 2.90900016e+00 2.89600015e+00 2.89600015e+00 2.90200019e+00 2.90200019e+00 2.92100024e+00 2.92100024e+00 2.90900016e+00 2.89600015e+00 2.89600015e+00 2.87100005e+00 2.85800004e+00 2.85800004e+00 2.84000015e+00 2.82200003e+00 2.80400014e+00 2.78600001e+00 2.77400017e+00 2.76300025e+00 2.74600005e+00 2.73400021e+00 2.71200013e+00 2.69000006e+00 2.68400002e+00 2.67300010e+00 2.66800022e+00 2.66300011e+00 2.66300011e+00 2.66300011e+00 2.66800022e+00 2.66800022e+00 0. 0. 0. 0. 0. 0. 0. 0. 0. 0. 2.48300004e+00 2.46900010e+00 2.46900010e+00 2.45500016e+00 2.43300009e+00 2.43300009e+00 2.44200015e+00 2.46000004e+00 2.46000004e+00 2.46000004e+00 2.46000004e+00 2.46000004e+00 2.45500016e+00 2.43300009e+00 2.41900015e+00 2.41900015e+00 2.41900015e+00 2.41100001e+00 2.41100001e+00 2.40200019e+00 2.39700007e+00 2.39700007e+00 2.39700007e+00 2.39300013e+00 2.39300013e+00 0. 2.39700007e+00 2.39700007e+00 2.41100001e+00 2.42800021e+00 2.45100021e+00 2.47400022e+00 2.49200010e+00 2.49200010e+00 2.49700022e+00 2.49200010e+00 2.49200010e+00 2.49200010e+00 0. 2.41900015e+00 2.41900015e+00 2.41900015e+00 2.41900015e+00 2.43700004e+00 2.42800021e+00 2.42800021e+00 2.44200015e+00 2.45100021e+00 2.45500016e+00 2.45100021e+00 2.45100021e+00 2.44600010e+00 2.43700004e+00
    2.92100024e+00 2.92100024e+00 2.92100024e+00 2.91500020e+00 2.90900016e+00 2.89600015e+00 2.88900018e+00 2.88900018e+00 2.88900018e+00 2.90900016e+00 2.89600015e+00 2.88900018e+00 2.88900018e+00 2.90200019e+00 2.87700009e+00 2.85800004e+00 2.85800004e+00 2.86400008e+00 2.86400008e+00 2.86400008e+00 2.87100005e+00 2.88300014e+00 2.89600015e+00 2.91500020e+00 2.91500020e+00 2.92100024e+00 2.92100024e+00 2.90900016e+00 2.90200019e+00 2.89600015e+00 2.89600015e+00 2.90200019e+00 2.90200019e+00 2.90200019e+00 2.91500020e+00 2.92800021e+00 0. 0. 0. 0. 2.84600019e+00 2.84000015e+00 2.84000015e+00 2.84000015e+00 2.84600019e+00 2.85800004e+00 2.85800004e+00 2.86400008e+00 2.88300014e+00 2.90200019e+00 2.90200019e+00 2.92800021e+00 2.94700003e+00 2.96700025e+00 2.98100019e+00 2.99400020e+00 2.99400020e+00 2.99400020e+00 3.00100017e+00 3.00100017e+00 3.00100017e+00 2.99400020e+00 2.99400020e+00 2.98100019e+00 2.97400022e+00 2.95400023e+00 2.92800021e+00 2.90900016e+00 2.90200019e+00 2.90200019e+00 2.90900016e+00 2.91500020e+00 2.91500020e+00 2.91500020e+00 2.92100024e+00 2.92100024e+00 2.90900016e+00 2.88900018e+00 2.88300014e+00 2.87100005e+00 2.86400008e+00 2.86400008e+00 2.87100005e+00 2.87100005e+00 2.87700009e+00 2.87700009e+00 2.87700009e+00 2.88900018e+00 2.90200019e+00 2.94700003e+00 2.96100020e+00 2.96700025e+00 2.96700025e+00 2.96700025e+00 2.95400023e+00 2.92100024e+00 2.90900016e+00 2.90900016e+00 2.90200019e+00 2.88900018e+00 2.87100005e+00 2.87100005e+00 2.87100005e+00 2.86400008e+00 2.86400008e+00 2.85800004e+00 2.84600019e+00 2.84600019e+00 2.84600019e+00 2.84600019e+00 2.85800004e+00 2.86400008e+00 2.87700009e+00 2.88300014e+00 2.88900018e+00 2.88300014e+00 2.87100005e+00 2.85200024e+00 2.85200024e+00 2.85200024e+00 2.85800004e+00 2.86400008e+00 2.86400008e+00 2.88900018e+00 2.90900016e+00 2.90900016e+00 2.91500020e+00 0. 0. 1.57900012e+00 1.57900012e+00 1.58700013e+00 2.88900018e+00 2.89600015e+00 2.90200019e+00 2.91500020e+00 2.91500020e+00 2.92800021e+00 2.92800021e+00 0. 0. 0. 0. 2.85800004e+00 2.85800004e+00 2.87100005e+00 2.89600015e+00 2.88900018e+00 2.88900018e+00 2.88300014e+00 2.87100005e+00 2.87100005e+00 2.87100005e+00 2.87100005e+00 2.87700009e+00 2.88300014e+00 2.88300014e+00 2.88300014e+00 2.88900018e+00 2.88900018e+00 2.88900018e+00 2.88900018e+00 2.89600015e+00 2.90200019e+00 2.90200019e+00 2.91500020e+00 2.92100024e+00 2.92100024e+00 2.91500020e+00 2.90900016e+00 2.90900016e+00 2.90900016e+00 2.91500020e+00 2.90900016e+00 2.90200019e+00 2.89600015e+00 2.89600015e+00 2.90900016e+00 2.91500020e+00 2.91500020e+00 2.91500020e+00 2.91500020e+00 2.90200019e+00 2.90200019e+00 2.90200019e+00 2.88900018e+00 2.87700009e+00 2.87100005e+00 2.86400008e+00 2.86400008e+00 2.86400008e+00 2.87100005e+00 2.86400008e+00 2.86400008e+00 2.86400008e+00 2.86400008e+00 2.86400008e+00 2.85800004e+00 2.85800004e+00 2.85800004e+00 2.85800004e+00 2.86400008e+00 2.86400008e+00 2.88300014e+00 2.88900018e+00 2.90200019e+00 2.90900016e+00 2.91500020e+00 2.92800021e+00 2.94100022e+00 2.94100022e+00 2.94100022e+00 2.92800021e+00 2.91500020e+00 2.91500020e+00 2.92100024e+00 2.90900016e+00 2.88900018e+00 2.88900018e+00 2.89600015e+00 2.90900016e+00 2.89600015e+00 2.89600015e+00 2.89600015e+00 2.90200019e+00 2.91500020e+00 2.91500020e+00 2.89600015e+00 2.88300014e+00 2.88300014e+00 2.87100005e+00 2.85800004e+00 2.85800004e+00 0. 0. 0. 2.79200006e+00 2.78000021e+00 2.77400017e+00 2.76300025e+00 2.74600005e+00 2.72300005e+00 2.70600009e+00 2.69500017e+00 2.68400002e+00 2.67300010e+00 2.66300011e+00 2.65200019e+00 2.65200019e+00 2.65700006e+00 2.66800022e+00 0. 0. 0. 0. 0. 0. 0. 0. 0. 0. 0. 2.46000004e+00 2.46000004e+00 2.45500016e+00 2.43700004e+00 2.43700004e+00 2.45100021e+00 2.46900010e+00 2.47400022e+00 2.46900010e+00 2.46000004e+00 2.45500016e+00 2.44200015e+00 2.42400002e+00 2.41500020e+00 2.41500020e+00 2.42400002e+00 2.41100001e+00 2.41100001e+00 2.40200019e+00 2.39300013e+00 2.39300013e+00 2.38400006e+00 2.37600017e+00 2.37600017e+00 2.38000011e+00 2.38900018e+00 2.38900018e+00 2.39300013e+00 2.41100001e+00 2.41900015e+00 2.43300009e+00 2.46900010e+00 2.46900010e+00 2.46000004e+00 2.45500016e+00 2.45500016e+00 2.45500016e+00 2.41500020e+00 2.40200019e+00 2.40200019e+00 2.40600014e+00 2.40600014e+00 2.41500020e+00 2.41100001e+00 2.41100001e+00 2.41900015e+00 2.43700004e+00 2.44200015e+00 2.43700004e+00 2.43700004e+00 2.44200015e+00 2.43700004e+00
    2.95400023e+00 2.94700003e+00 2.94100022e+00 2.92800021e+00 2.92100024e+00 2.90900016e+00 2.90200019e+00 2.89600015e+00 2.89600015e+00 2.90900016e+00 2.89600015e+00 2.88900018e+00 2.88900018e+00 2.90200019e+00 2.87700009e+00 2.85800004e+00 2.85800004e+00 2.86400008e+00 2.86400008e+00 2.86400008e+00 2.86400008e+00 2.87100005e+00 2.88300014e+00 2.90200019e+00 2.90900016e+00 2.91500020e+00 2.91500020e+00 2.90900016e+00 2.90200019e+00 2.89600015e+00 2.89600015e+00 2.90200019e+00 2.90200019e+00 2.90900016e+00 2.91500020e+00 2.93400025e+00 2.98100019e+00 0. 0. 0. 2.90200019e+00 2.85200024e+00 2.84600019e+00 2.84600019e+00 2.85800004e+00 2.86400008e+00 2.87100005e+00 2.87700009e+00 2.89600015e+00 2.90900016e+00 2.92800021e+00 2.94700003e+00 2.96700025e+00 2.98100019e+00 2.98700023e+00 2.98700023e+00 2.96100020e+00 2.96100020e+00 2.96700025e+00 2.97400022e+00 2.96700025e+00 2.96700025e+00 2.96700025e+00 2.96700025e+00 2.96700025e+00 2.96100020e+00 2.92800021e+00 2.90900016e+00 2.90900016e+00 2.91500020e+00 2.91500020e+00 2.91500020e+00 2.92100024e+00 2.92100024e+00 2.93400025e+00 2.93400025e+00 2.92100024e+00 2.90900016e+00 2.89600015e+00 2.88900018e+00 2.88300014e+00 2.88300014e+00 2.88900018e+00 2.89600015e+00 2.90200019e+00 2.90200019e+00 2.90200019e+00 2.90900016e+00 2.92100024e+00 2.98100019e+00 2.98100019e+00 2.98100019e+00 2.96700025e+00 2.96700025e+00 2.96100020e+00 2.92800021e+00 2.92100024e+00 2.92100024e+00 2.91500020e+00 2.90900016e+00 2.88900018e+00 2.87700009e+00 2.87700009e+00 2.88300014e+00 2.87700009e+00 2.86400008e+00 2.84600019e+00 2.84600019e+00 2.84600019e+00 2.84600019e+00 2.86400008e+00 2.87700009e+00 2.88900018e+00 2.89600015e+00 2.90900016e+00 2.88900018e+00 2.86400008e+00 2.84600019e+00 2.84600019e+00 2.85200024e+00 2.85800004e+00 2.86400008e+00 2.86400008e+00 2.88900018e+00 2.90900016e+00 2.90900016e+00 2.92100024e+00 2.91500020e+00 2.88900018e+00 1.57900012e+00 1.57900012e+00 2.87100005e+00 2.87100005e+00 2.88300014e+00 2.89600015e+00 2.92100024e+00 2.92100024e+00 2.94100022e+00 2.94100022e+00 0. 0. 0. 2.87100005e+00 2.85800004e+00 2.85800004e+00 2.87100005e+00 2.88900018e+00 2.88900018e+00 2.88900018e+00 2.87700009e+00 2.87100005e+00 2.87100005e+00 2.86400008e+00 2.86400008e+00 2.87100005e+00 2.88300014e+00 2.87700009e+00 2.87700009e+00 2.88300014e+00 2.89600015e+00 2.89600015e+00 2.90200019e+00 2.90900016e+00 2.92100024e+00 2.92100024e+00 2.92800021e+00 2.92800021e+00 2.92100024e+00 2.90900016e+00 2.90900016e+00 2.90900016e+00 2.90900016e+00 2.92100024e+00 2.92800021e+00 2.90200019e+00 2.90200019e+00 2.92100024e+00 2.92100024e+00 2.91500020e+00 2.91500020e+00 2.91500020e+00 2.91500020e+00 2.90200019e+00 2.90200019e+00 2.90900016e+00 2.91500020e+00 2.90200019e+00 2.89600015e+00 2.88900018e+00 2.88900018e+00 2.88900018e+00 2.88300014e+00 2.87700009e+00 2.87700009e+00 2.88300014e+00 2.87700009e+00 2.87700009e+00 2.87700009e+00 2.87700009e+00 2.87700009e+00 2.87700009e+00 2.87700009e+00 2.87700009e+00 2.89600015e+00 2.90200019e+00 2.90900016e+00 2.90900016e+00 2.92100024e+00 2.92800021e+00 2.94100022e+00 2.93400025e+00 2.93400025e+00 2.90900016e+00 2.89600015e+00 2.89600015e+00 2.90200019e+00 2.89600015e+00 2.88300014e+00 2.88300014e+00 2.88900018e+00 2.90900016e+00 2.89600015e+00 2.89600015e+00 2.89600015e+00 2.90200019e+00 2.91500020e+00 2.91500020e+00 2.89600015e+00 2.88300014e+00 2.88300014e+00 2.87700009e+00 2.86400008e+00 2.86400008e+00 0. 0. 0. 0. 2.78600001e+00 2.78000021e+00 2.76900005e+00 2.75100017e+00 2.72300005e+00 2.70600009e+00 2.69500017e+00 2.68400002e+00 2.67300010e+00 2.66300011e+00 2.65200019e+00 2.65200019e+00 2.65700006e+00 2.66800022e+00 0. 0. 0. 0. 0. 0. 0. 0. 0. 0. 0. 2.46000004e+00 2.46000004e+00 2.45500016e+00 2.43700004e+00 2.43700004e+00 2.44200015e+00 2.46400023e+00 2.46900010e+00 2.46000004e+00 2.45100021e+00 2.44200015e+00 2.42800021e+00 2.42400002e+00 2.41500020e+00 2.41500020e+00 2.42400002e+00 2.41500020e+00 2.41100001e+00 2.40200019e+00 2.39300013e+00 2.38900018e+00 2.38400006e+00 2.37600017e+00 2.37600017e+00 2.38000011e+00 2.38900018e+00 2.38900018e+00 2.39300013e+00 2.41100001e+00 2.41100001e+00 2.41900015e+00 2.43700004e+00 2.42800021e+00 2.41900015e+00 2.41900015e+00 2.41900015e+00 2.41500020e+00 2.40600014e+00 2.40200019e+00 2.40200019e+00 2.40200019e+00 2.40200019e+00 2.41100001e+00 2.40200019e+00 2.40200019e+00 2.40600014e+00 2.41900015e+00 2.41900015e+00 2.42400002e+00 2.43700004e+00 2.44200015e+00 2.44200015e+00
    2.97400022e+00 2.96100020e+00 2.95400023e+00 2.94700003e+00 2.94100022e+00 2.92800021e+00 2.92100024e+00 2.92100024e+00 2.94100022e+00 2.96100020e+00 2.93400025e+00 2.92800021e+00 2.92800021e+00 2.92100024e+00 2.88300014e+00 2.86400008e+00 2.85800004e+00 2.85800004e+00 2.85800004e+00 2.85800004e+00 2.85800004e+00 2.86400008e+00 2.87100005e+00 2.89600015e+00 2.90200019e+00 2.90200019e+00 2.90900016e+00 2.90900016e+00 2.90200019e+00 2.89600015e+00 2.89600015e+00 2.90900016e+00 2.90900016e+00 2.91500020e+00 2.93400025e+00 2.93400025e+00 2.98100019e+00 3.14300013e+00 3.14300013e+00 3.16600013e+00 3.12900019e+00 3.12900019e+00 2.88900018e+00 2.88300014e+00 2.88300014e+00 2.88300014e+00 2.88300014e+00 2.88900018e+00 2.90900016e+00 2.90900016e+00 2.93400025e+00 2.96100020e+00 2.97400022e+00 2.98100019e+00 2.98100019e+00 2.97400022e+00 2.95400023e+00 2.95400023e+00 2.95400023e+00 2.96100020e+00 2.96100020e+00 2.96100020e+00 2.96100020e+00 2.95400023e+00 2.95400023e+00 2.94700003e+00 2.92100024e+00 2.90900016e+00 2.90900016e+00 2.90900016e+00 2.90900016e+00 2.91500020e+00 2.91500020e+00 2.92100024e+00 2.94100022e+00 2.94700003e+00 2.94100022e+00 2.92800021e+00 2.92100024e+00 2.91500020e+00 2.90900016e+00 2.90900016e+00 2.90900016e+00 2.90900016e+00 2.90900016e+00 2.90900016e+00 2.90900016e+00 2.90900016e+00 2.92100024e+00 2.94700003e+00 2.95400023e+00 2.96100020e+00 2.96100020e+00 2.96700025e+00 2.97400022e+00 2.96100020e+00 2.95400023e+00 2.95400023e+00 2.95400023e+00 2.95400023e+00 2.93400025e+00 2.88900018e+00 2.88900018e+00 2.88900018e+00 2.87700009e+00 2.87100005e+00 2.85200024e+00 2.85200024e+00 2.85200024e+00 2.85800004e+00 2.87100005e+00 2.87700009e+00 2.89600015e+00 2.89600015e+00 2.88300014e+00 2.86400008e+00 2.85200024e+00 2.84600019e+00 2.84600019e+00 2.85200024e+00 2.86400008e+00 2.86400008e+00 2.86400008e+00 2.88300014e+00 2.90200019e+00 2.91500020e+00 2.90900016e+00 2.88900018e+00 2.87700009e+00 2.87100005e+00 2.86400008e+00 2.85800004e+00 2.85800004e+00 2.87100005e+00 2.88300014e+00 2.90900016e+00 2.90900016e+00 2.92800021e+00 2.91500020e+00 2.91500020e+00 2.90200019e+00 2.88900018e+00 2.87100005e+00 2.85800004e+00 2.85800004e+00 2.87100005e+00 2.88900018e+00 2.88900018e+00 2.88900018e+00 2.87700009e+00 2.87100005e+00 2.87100005e+00 2.86400008e+00 2.86400008e+00 2.87100005e+00 2.88300014e+00 2.87700009e+00 2.87700009e+00 2.88300014e+00 2.89600015e+00 2.89600015e+00 2.90200019e+00 2.90900016e+00 2.92100024e+00 2.92100024e+00 2.92800021e+00 2.92100024e+00 2.92100024e+00 2.90200019e+00 2.89600015e+00 2.89600015e+00 2.90200019e+00 2.90200019e+00 2.89600015e+00 2.88900018e+00 2.88900018e+00 2.89600015e+00 2.90900016e+00 2.90900016e+00 2.91500020e+00 2.93400025e+00 2.94700003e+00 2.94700003e+00 2.94700003e+00 2.94700003e+00 2.96100020e+00 2.96700025e+00 2.90900016e+00 2.90900016e+00 2.90200019e+00 2.90200019e+00 2.89600015e+00 2.89600015e+00 2.89600015e+00 2.89600015e+00 2.88900018e+00 2.88900018e+00 2.88900018e+00 2.88900018e+00 2.88900018e+00 2.88300014e+00 2.88300014e+00 2.88300014e+00 2.90200019e+00 2.90900016e+00 2.92100024e+00 2.92100024e+00 2.92800021e+00 2.92800021e+00 2.94100022e+00 2.93400025e+00 2.92800021e+00 2.90900016e+00 2.89600015e+00 2.89600015e+00 2.89600015e+00 2.89600015e+00 2.88300014e+00 2.88300014e+00 2.88900018e+00 2.90900016e+00 2.92100024e+00 2.90200019e+00 2.90200019e+00 2.90200019e+00 2.91500020e+00 2.92800021e+00 2.76900005e+00 2.76900005e+00 2.88300014e+00 2.88300014e+00 2.90200019e+00 0. 0. 0. 0. 0. 0. 2.78000021e+00 2.76900005e+00 2.76900005e+00 2.72300005e+00 2.72300005e+00 0. 0. 0. 0. 0. 0. 0. 0. 0. 0. 0. 0. 0. 0. 0. 0. 0. 0. 0. 2.51100016e+00 2.49200010e+00 2.45500016e+00 2.43700004e+00 2.43700004e+00 2.44200015e+00 2.45500016e+00 2.44200015e+00 2.43700004e+00 2.42800021e+00 2.42400002e+00 2.41900015e+00 2.41500020e+00 2.41500020e+00 2.41500020e+00 2.41900015e+00 2.41100001e+00 2.40200019e+00 2.39300013e+00 2.38400006e+00 2.38400006e+00 2.38400006e+00 2.38000011e+00 2.38000011e+00 2.38400006e+00 2.39300013e+00 2.39300013e+00 2.40200019e+00 2.41100001e+00 2.40600014e+00 2.40600014e+00 2.40600014e+00 2.40600014e+00 2.40200019e+00 2.40200019e+00 2.40200019e+00 2.40200019e+00 2.39700007e+00 2.39700007e+00 2.39700007e+00 2.39700007e+00 2.40200019e+00 2.40200019e+00 2.39700007e+00 2.39700007e+00 2.39700007e+00 2.40600014e+00 2.41100001e+00 2.41500020e+00 2.41500020e+00 2.41900015e+00 2.43700004e+00
    2.98700023e+00 2.98100019e+00 2.97400022e+00 2.96700025e+00 2.96700025e+00 2.96700025e+00 2.96700025e+00 2.96700025e+00 2.98100019e+00 2.98100019e+00 2.97400022e+00 2.92800021e+00 2.92800021e+00 2.92100024e+00 2.88300014e+00 2.86400008e+00 2.85800004e+00 2.85800004e+00 2.85800004e+00 2.85800004e+00 2.85800004e+00 2.85800004e+00 2.85800004e+00 2.88900018e+00 2.90200019e+00 2.90200019e+00 2.90900016e+00 2.91500020e+00 2.91500020e+00 2.90900016e+00 2.90900016e+00 2.90900016e+00 2.92100024e+00 2.94100022e+00 2.96100020e+00 2.99400020e+00 3.12100005e+00 3.12100005e+00 3.14300013e+00 3.14300013e+00 3.12900019e+00 3.12900019e+00 2.97400022e+00 2.92800021e+00 2.90900016e+00 2.90200019e+00 2.90200019e+00 2.90200019e+00 2.91500020e+00 2.92100024e+00 2.96100020e+00 2.99400020e+00 2.99400020e+00 2.98700023e+00 2.98100019e+00 2.97400022e+00 2.95400023e+00 2.95400023e+00 2.95400023e+00 2.96100020e+00 2.96100020e+00 2.96100020e+00 2.96100020e+00 2.95400023e+00 2.94100022e+00 2.94100022e+00 2.90900016e+00 2.89600015e+00 2.89600015e+00 2.89600015e+00 2.89600015e+00 2.90200019e+00 2.90900016e+00 2.92100024e+00 2.94100022e+00 2.96100020e+00 2.96700025e+00 2.95400023e+00 2.94100022e+00 2.92800021e+00 2.92800021e+00 2.92800021e+00 2.92800021e+00 2.92100024e+00 2.92100024e+00 2.92100024e+00 2.92100024e+00 2.92100024e+00 2.92800021e+00 2.94700003e+00 2.95400023e+00 2.96100020e+00 2.96100020e+00 2.96700025e+00 2.97400022e+00 2.97400022e+00 2.99400020e+00 3.00100017e+00 2.97400022e+00 2.97400022e+00 0. 0. 0. 2.89600015e+00 2.88300014e+00 2.87100005e+00 2.85200024e+00 2.85200024e+00 2.85200024e+00 2.86400008e+00 2.87700009e+00 2.88300014e+00 2.89600015e+00 2.89600015e+00 2.88300014e+00 2.86400008e+00 2.85200024e+00 2.84600019e+00 2.84600019e+00 2.85200024e+00 2.85800004e+00 2.86400008e+00 2.86400008e+00 2.87700009e+00 2.89600015e+00 2.89600015e+00 2.90200019e+00 2.88900018e+00 2.87700009e+00 2.87100005e+00 2.86400008e+00 2.85800004e+00 2.85800004e+00 2.87100005e+00 2.88300014e+00 2.90900016e+00 2.90900016e+00 2.92800021e+00 2.91500020e+00 2.91500020e+00 2.90200019e+00 2.88900018e+00 2.88300014e+00 2.87700009e+00 2.87700009e+00 2.88900018e+00 2.90200019e+00 2.90200019e+00 2.89600015e+00 2.87700009e+00 2.87100005e+00 2.87100005e+00 2.87700009e+00 2.87700009e+00 2.87700009e+00 2.88900018e+00 2.90200019e+00 2.90200019e+00 2.90900016e+00 2.90900016e+00 2.90900016e+00 2.90900016e+00 2.92100024e+00 2.92100024e+00 2.92800021e+00 2.92800021e+00 2.92100024e+00 2.91500020e+00 2.90200019e+00 2.89600015e+00 2.89600015e+00 2.88900018e+00 2.88900018e+00 2.88900018e+00 2.88900018e+00 2.88900018e+00 2.89600015e+00 2.90200019e+00 2.90200019e+00 2.90900016e+00 2.92100024e+00 2.92800021e+00 2.94700003e+00 2.94700003e+00 2.96100020e+00 2.96100020e+00 2.96700025e+00 2.94700003e+00 2.94100022e+00 2.93400025e+00 2.92800021e+00 2.92800021e+00 2.92100024e+00 2.92100024e+00 2.90900016e+00 2.90200019e+00 2.89600015e+00 2.88900018e+00 2.88900018e+00 2.89600015e+00 2.89600015e+00 2.89600015e+00 2.90900016e+00 2.92100024e+00 2.93400025e+00 2.93400025e+00 2.94100022e+00 2.94100022e+00 2.94100022e+00 2.94100022e+00 2.92800021e+00 2.92800021e+00 2.90900016e+00 2.89600015e+00 2.88900018e+00 2.88900018e+00 2.89600015e+00 2.90200019e+00 2.90200019e+00 2.91500020e+00 2.94700003e+00 2.94700003e+00 2.96700025e+00 2.96700025e+00 2.56500006e+00 2.56500006e+00 2.60000014e+00 2.63600016e+00 2.63600016e+00 2.64100003e+00 0. 0. 0. 0. 0. 0. 0. 0. 0. 0. 0. 0. 0. 0. 0. 0. 0. 0. 0. 0. 0. 0. 0. 0. 0. 0. 0. 0. 0. 0. 0. 0. 2.51100016e+00 2.48800015e+00 2.46400023e+00 2.44200015e+00 2.44200015e+00 2.44200015e+00 2.44600010e+00 2.43700004e+00 2.42800021e+00 2.41900015e+00 2.41900015e+00 2.41500020e+00 2.40600014e+00 2.40200019e+00 2.40200019e+00 2.41100001e+00 2.40600014e+00 2.39700007e+00 2.39300013e+00 2.38400006e+00 2.38400006e+00 2.38900018e+00 2.38900018e+00 2.38900018e+00 2.39300013e+00 2.39300013e+00 2.40200019e+00 2.40200019e+00 2.41100001e+00 2.40600014e+00 2.40600014e+00 2.40200019e+00 2.40200019e+00 2.40200019e+00 2.39700007e+00 2.39700007e+00 2.39700007e+00 2.39700007e+00 2.39700007e+00 2.39300013e+00 2.39300013e+00 2.40600014e+00 2.40200019e+00 2.39700007e+00 2.39700007e+00 2.39700007e+00 2.40600014e+00 2.41100001e+00 2.41500020e+00 2.41500020e+00 2.41900015e+00 2.43700004e+00
    3.00100017e+00 2.99400020e+00 2.98700023e+00 2.98100019e+00 2.97400022e+00 2.97400022e+00 2.98700023e+00 2.98700023e+00 2.98700023e+00 3.00100017e+00 2.99400020e+00 2.98100019e+00 2.95400023e+00 2.93400025e+00 2.90900016e+00 2.87100005e+00 2.85800004e+00 2.85800004e+00 2.85800004e+00 2.85200024e+00 2.85200024e+00 2.85800004e+00 2.85800004e+00 2.88900018e+00 2.90200019e+00 2.90900016e+00 2.90900016e+00 2.91500020e+00 2.92100024e+00 2.92100024e+00 2.92100024e+00 2.92100024e+00 2.92800021e+00 2.95400023e+00 2.99400020e+00 3.03500009e+00 3.11400008e+00 3.12100005e+00 3.15800023e+00 3.14300013e+00 3.14300013e+00 0. 0. 2.94100022e+00 2.91500020e+00 2.90200019e+00 2.90200019e+00 2.90900016e+00 2.91500020e+00 2.92100024e+00 2.95400023e+00 2.97400022e+00 2.98100019e+00 2.99400020e+00 2.98100019e+00 2.97400022e+00 2.96100020e+00 2.96100020e+00 2.96100020e+00 2.95400023e+00 2.95400023e+00 2.96100020e+00 2.96700025e+00 2.95400023e+00 2.94100022e+00 2.94100022e+00 2.88900018e+00 2.88900018e+00 2.88900018e+00 2.89600015e+00 2.89600015e+00 2.89600015e+00 2.90900016e+00 2.92100024e+00 2.94100022e+00 2.96100020e+00 2.96100020e+00 2.94700003e+00 2.93400025e+00 2.92100024e+00 2.92100024e+00 2.92800021e+00 2.93400025e+00 2.92100024e+00 2.91500020e+00 2.91500020e+00 2.91500020e+00 2.91500020e+00 2.92800021e+00 2.94100022e+00 2.94100022e+00 2.96100020e+00 2.98100019e+00 2.98700023e+00 2.99400020e+00 2.99400020e+00 2.99400020e+00 3.00100017e+00 3.00100017e+00 3.00800014e+00 0. 0. 0. 0. 2.89600015e+00 2.88300014e+00 2.86400008e+00 2.86400008e+00 2.87100005e+00 2.88900018e+00 2.89600015e+00 2.89600015e+00 2.91500020e+00 2.92100024e+00 2.88300014e+00 2.86400008e+00 2.85800004e+00 2.85800004e+00 2.85800004e+00 2.85800004e+00 2.85800004e+00 2.86400008e+00 2.86400008e+00 2.87700009e+00 2.88300014e+00 2.88300014e+00 2.89600015e+00 2.89600015e+00 2.88900018e+00 2.87700009e+00 2.85800004e+00 2.85800004e+00 2.86400008e+00 2.87100005e+00 2.88900018e+00 0. 0. 0. 2.93400025e+00 2.93400025e+00 2.90200019e+00 2.90200019e+00 2.89600015e+00 2.89600015e+00 2.89600015e+00 2.89600015e+00 2.90200019e+00 2.90200019e+00 2.89600015e+00 2.87100005e+00 2.85800004e+00 2.85800004e+00 2.85200024e+00 2.85200024e+00 2.84600019e+00 2.84600019e+00 2.91500020e+00 2.91500020e+00 2.89600015e+00 2.89600015e+00 2.89600015e+00 2.90200019e+00 2.91500020e+00 2.92800021e+00 2.92800021e+00 2.92100024e+00 2.90200019e+00 2.89600015e+00 2.88300014e+00 2.88300014e+00 2.88300014e+00 2.88900018e+00 2.88900018e+00 2.88900018e+00 2.88900018e+00 2.88900018e+00 2.89600015e+00 2.90200019e+00 2.90200019e+00 2.90900016e+00 2.92100024e+00 2.92800021e+00 2.94700003e+00 2.94700003e+00 2.96100020e+00 2.96100020e+00 2.96700025e+00 2.94700003e+00 2.94100022e+00 2.94100022e+00 2.93400025e+00 2.92800021e+00 2.92100024e+00 2.92100024e+00 2.91500020e+00 2.90200019e+00 2.90200019e+00 2.89600015e+00 2.89600015e+00 2.89600015e+00 2.89600015e+00 2.89600015e+00 2.91500020e+00 2.92800021e+00 2.94100022e+00 2.94100022e+00 2.94100022e+00 2.93400025e+00 2.93400025e+00 2.92800021e+00 2.91500020e+00 2.91500020e+00 2.90900016e+00 2.89600015e+00 2.88900018e+00 2.88900018e+00 2.89600015e+00 2.90200019e+00 2.90200019e+00 2.92100024e+00 2.92100024e+00 2.94700003e+00 2.94100022e+00 2.94100022e+00 2.56500006e+00 2.56500006e+00 2.59000015e+00 2.61000013e+00 2.62600017e+00 2.62600017e+00 0. 0. 0. 0. 0. 0. 0. 0. 0. 0. 0. 0. 0. 0. 0. 0. 0. 2.50200009e+00 2.49200010e+00 2.49200010e+00 0. 0. 0. 0. 0. 0. 0. 0. 0. 0. 0. 0. 0. 2.48800015e+00 2.46400023e+00 2.44200015e+00 2.44200015e+00 2.44600010e+00 2.44200015e+00 2.43300009e+00 2.42800021e+00 2.41900015e+00 2.41900015e+00 2.41500020e+00 2.40600014e+00 2.40200019e+00 2.40200019e+00 2.41100001e+00 2.40600014e+00 2.39700007e+00 2.39300013e+00 2.39300013e+00 2.39700007e+00 2.39700007e+00 2.39700007e+00 2.39700007e+00 2.39700007e+00 2.40200019e+00 2.40600014e+00 2.40600014e+00 2.40600014e+00 2.40200019e+00 2.39700007e+00 2.39300013e+00 2.39300013e+00 2.39300013e+00 2.38900018e+00 2.38900018e+00 2.38900018e+00 2.38900018e+00 2.39700007e+00 2.39300013e+00 2.39300013e+00 2.40600014e+00 2.40600014e+00 2.39700007e+00 2.39700007e+00 2.40600014e+00 2.40600014e+00 2.41100001e+00 2.42800021e+00 2.43300009e+00 2.43300009e+00 2.44600010e+00
    0. 3.01500010e+00 3.01500010e+00 3.01500010e+00 3.00800014e+00 3.00800014e+00 3.01500010e+00 3.00800014e+00 3.00800014e+00 3.01500010e+00 3.00100017e+00 2.98100019e+00 2.96100020e+00 2.93400025e+00 2.90900016e+00 2.87100005e+00 2.85800004e+00 2.85800004e+00 2.85800004e+00 2.85200024e+00 2.85200024e+00 2.85800004e+00 2.86400008e+00 2.90200019e+00 2.91500020e+00 2.91500020e+00 2.91500020e+00 2.92800021e+00 2.92800021e+00 2.92800021e+00 2.92800021e+00 2.93400025e+00 2.96100020e+00 2.99400020e+00 3.02800012e+00 3.07800007e+00 3.11400008e+00 3.15100026e+00 3.15800023e+00 3.14300013e+00 3.14300013e+00 0. 0. 0. 2.92800021e+00 2.90200019e+00 2.90200019e+00 2.90900016e+00 2.91500020e+00 2.92100024e+00 2.94700003e+00 2.96100020e+00 2.97400022e+00 2.97400022e+00 2.97400022e+00 2.96100020e+00 2.95400023e+00 2.95400023e+00 2.94700003e+00 2.93400025e+00 2.92800021e+00 2.92100024e+00 2.92100024e+00 2.96700025e+00 0. 0. 2.86400008e+00 2.86400008e+00 2.87700009e+00 2.87700009e+00 2.87700009e+00 2.89600015e+00 2.90200019e+00 2.92800021e+00 2.94700003e+00 2.96100020e+00 2.96100020e+00 2.94700003e+00 2.93400025e+00 2.92100024e+00 2.92100024e+00 2.92800021e+00 2.93400025e+00 2.92100024e+00 2.91500020e+00 2.91500020e+00 2.90900016e+00 2.90900016e+00 2.91500020e+00 2.90900016e+00 2.90900016e+00 2.92800021e+00 2.95400023e+00 2.96700025e+00 2.98700023e+00 3.00100017e+00 3.00800014e+00 3.00800014e+00 3.00800014e+00 3.00800014e+00 0. 0. 0. 0. 0. 2.89600015e+00 2.88300014e+00 2.88300014e+00 2.88900018e+00 2.90200019e+00 2.89600015e+00 2.89600015e+00 2.91500020e+00 2.94100022e+00 2.91500020e+00 2.88900018e+00 2.87100005e+00 2.87100005e+00 2.86400008e+00 2.86400008e+00 2.86400008e+00 2.86400008e+00 2.86400008e+00 2.87700009e+00 2.88300014e+00 2.88300014e+00 2.89600015e+00 2.89600015e+00 2.88900018e+00 2.87700009e+00 2.85800004e+00 2.85800004e+00 2.86400008e+00 2.86400008e+00 2.86400008e+00 2.90200019e+00 0. 3.01500010e+00 3.00100017e+00 2.98100019e+00 2.90200019e+00 2.90200019e+00 2.90200019e+00 2.90200019e+00 2.90900016e+00 2.90900016e+00 2.91500020e+00 2.90900016e+00 2.89600015e+00 2.87100005e+00 2.85800004e+00 2.85800004e+00 2.85200024e+00 2.85200024e+00 2.84600019e+00 2.84600019e+00 0. 0. 2.88900018e+00 2.88900018e+00 2.88900018e+00 2.88900018e+00 2.89600015e+00 2.90900016e+00 2.91500020e+00 2.91500020e+00 2.89600015e+00 2.88900018e+00 2.88300014e+00 2.88300014e+00 2.88300014e+00 2.88900018e+00 2.88900018e+00 2.88900018e+00 2.88900018e+00 2.88900018e+00 2.89600015e+00 2.90200019e+00 2.90200019e+00 2.90900016e+00 2.92800021e+00 2.93400025e+00 2.95400023e+00 2.95400023e+00 2.98100019e+00 2.98100019e+00 2.98700023e+00 2.96100020e+00 2.96100020e+00 2.96100020e+00 2.96100020e+00 2.95400023e+00 2.93400025e+00 2.93400025e+00 2.92800021e+00 2.91500020e+00 2.90900016e+00 2.90200019e+00 2.90200019e+00 2.90200019e+00 2.89600015e+00 2.89600015e+00 2.92100024e+00 2.93400025e+00 2.95400023e+00 2.94700003e+00 2.94100022e+00 2.93400025e+00 2.93400025e+00 2.92800021e+00 2.91500020e+00 2.91500020e+00 2.90900016e+00 2.90200019e+00 2.89600015e+00 2.89600015e+00 2.90900016e+00 2.90900016e+00 2.91500020e+00 2.92100024e+00 2.92100024e+00 2.94700003e+00 2.94100022e+00 2.94100022e+00 2.56500006e+00 2.56500006e+00 2.59000015e+00 2.60500002e+00 2.62600017e+00 2.62600017e+00 0. 0. 0. 0. 0. 0. 0. 0. 2.78600001e+00 2.78600001e+00 0. 5.07000017e+00 5.07000017e+00 0. 0. 0. 0. 2.50200009e+00 2.49200010e+00 2.49200010e+00 0. 0. 0. 0. 0. 0. 0. 0. 0. 0. 2.54000020e+00 2.51600003e+00 2.51100016e+00 2.49200010e+00 2.47400022e+00 2.46000004e+00 2.45500016e+00 2.44600010e+00 2.43300009e+00 2.42400002e+00 2.41900015e+00 2.41100001e+00 2.40200019e+00 2.40200019e+00 2.39700007e+00 2.39700007e+00 2.39700007e+00 2.39700007e+00 2.39300013e+00 2.38900018e+00 2.38400006e+00 2.38000011e+00 2.37600017e+00 2.37600017e+00 2.38000011e+00 2.38400006e+00 2.39300013e+00 2.39300013e+00 2.40200019e+00 2.40600014e+00 2.40600014e+00 2.40200019e+00 2.39700007e+00 2.39300013e+00 2.39300013e+00 2.39300013e+00 2.38900018e+00 2.38900018e+00 2.38900018e+00 2.38900018e+00 2.39700007e+00 2.39700007e+00 2.39700007e+00 2.40600014e+00 2.40600014e+00 2.40600014e+00 2.40600014e+00 2.41900015e+00 2.41900015e+00 2.42400002e+00 2.44600010e+00 2.44600010e+00 2.45100021e+00 2.44200015e+00
    0. 2.97400022e+00 2.97400022e+00 3.01500010e+00 3.01500010e+00 3.01500010e+00 3.01500010e+00 3.01500010e+00 3.01500010e+00 3.01500010e+00 3.00100017e+00 2.98700023e+00 2.97400022e+00 2.94700003e+00 2.91500020e+00 2.88900018e+00 2.87700009e+00 2.87100005e+00 2.87100005e+00 2.87100005e+00 2.87100005e+00 2.88900018e+00 2.90200019e+00 2.94100022e+00 2.96700025e+00 0. 0. 0. 3.00800014e+00 2.98100019e+00 2.98100019e+00 2.98700023e+00 2.99400020e+00 3.02800012e+00 3.03500009e+00 3.03500009e+00 3.08500004e+00 3.08500004e+00 3.10700011e+00 3.09900022e+00 3.09900022e+00 0. 0. 0. 2.92800021e+00 2.92100024e+00 2.91500020e+00 2.91500020e+00 2.91500020e+00 2.92100024e+00 2.94700003e+00 2.96100020e+00 2.97400022e+00 2.97400022e+00 2.97400022e+00 2.96100020e+00 2.95400023e+00 2.95400023e+00 2.94700003e+00 2.93400025e+00 2.92800021e+00 2.92100024e+00 2.90900016e+00 2.90900016e+00 0. 0. 2.86400008e+00 2.86400008e+00 2.86400008e+00 2.86400008e+00 2.86400008e+00 2.88900018e+00 2.88900018e+00 2.90200019e+00 2.92800021e+00 2.96700025e+00 2.98100019e+00 2.99400020e+00 2.96100020e+00 2.93400025e+00 2.93400025e+00 2.93400025e+00 2.93400025e+00 2.92100024e+00 2.91500020e+00 2.91500020e+00 2.90900016e+00 2.90900016e+00 2.91500020e+00 2.90900016e+00 2.90900016e+00 2.92800021e+00 2.95400023e+00 2.96700025e+00 2.98700023e+00 3.00800014e+00 3.00800014e+00 3.01500010e+00 3.02100015e+00 3.04900026e+00 0. 0. 0. 0. 0. 0. 2.97400022e+00 2.92100024e+00 2.92100024e+00 2.94700003e+00 2.92800021e+00 2.92800021e+00 2.94100022e+00 2.95400023e+00 2.91500020e+00 2.88900018e+00 2.87700009e+00 2.87700009e+00 2.87100005e+00 2.87100005e+00 2.87100005e+00 2.87700009e+00 2.87700009e+00 2.88300014e+00 2.88300014e+00 2.88300014e+00 2.89600015e+00 2.88900018e+00 2.88300014e+00 2.88300014e+00 0. 2.87100005e+00 2.86400008e+00 2.86400008e+00 2.86400008e+00 2.90200019e+00 0. 3.01500010e+00 3.00100017e+00 2.98100019e+00 2.95400023e+00 2.93400025e+00 2.92800021e+00 2.92800021e+00 2.93400025e+00 2.93400025e+00 2.93400025e+00 2.93400025e+00 2.91500020e+00 2.88900018e+00 2.87700009e+00 2.87700009e+00 2.88300014e+00 2.87700009e+00 2.85800004e+00 2.85800004e+00 0. 0. 2.88900018e+00 2.88900018e+00 2.88900018e+00 2.88900018e+00 2.89600015e+00 2.90900016e+00 2.90900016e+00 2.90200019e+00 2.88900018e+00 2.88900018e+00 2.88300014e+00 2.88300014e+00 2.88300014e+00 2.89600015e+00 2.89600015e+00 2.90200019e+00 2.89600015e+00 2.89600015e+00 2.90900016e+00 2.91500020e+00 2.91500020e+00 2.92100024e+00 2.93400025e+00 2.94700003e+00 2.97400022e+00 2.98100019e+00 2.98100019e+00 2.98700023e+00 2.98700023e+00 2.96100020e+00 2.96100020e+00 2.96700025e+00 2.97400022e+00 2.96700025e+00 2.94700003e+00 2.94700003e+00 2.94700003e+00 2.94100022e+00 2.92100024e+00 2.92100024e+00 2.92100024e+00 2.91500020e+00 2.91500020e+00 2.91500020e+00 2.93400025e+00 2.96100020e+00 2.96100020e+00 2.98100019e+00 2.97400022e+00 2.96100020e+00 2.95400023e+00 2.94100022e+00 2.92100024e+00 2.91500020e+00 2.90900016e+00 2.90200019e+00 2.90200019e+00 2.90200019e+00 2.90900016e+00 2.92100024e+00 2.93400025e+00 2.94700003e+00 2.94700003e+00 2.94700003e+00 3.00100017e+00 0. 2.57000017e+00 2.57000017e+00 2.60500002e+00 2.60500002e+00 0. 0. 0. 0. 0. 0. 0. 0. 0. 0. 2.77400017e+00 2.76300025e+00 2.76300025e+00 4.99400043e+00 4.99400043e+00 0. 0. 0. 0. 0. 0. 0. 0. 0. 0. 0. 0. 0. 0. 2.57000017e+00 2.56000018e+00 2.55000019e+00 2.54000020e+00 2.51600003e+00 2.51100016e+00 2.49200010e+00 2.47400022e+00 2.46000004e+00 2.45100021e+00 2.44200015e+00 2.42800021e+00 2.42400002e+00 2.41900015e+00 2.41100001e+00 2.40200019e+00 2.40200019e+00 2.39700007e+00 2.39700007e+00 2.39700007e+00 2.39300013e+00 2.38900018e+00 2.38000011e+00 2.38000011e+00 2.37600017e+00 2.36700010e+00 2.36700010e+00 2.37600017e+00 2.37600017e+00 2.38400006e+00 2.39300013e+00 2.39300013e+00 2.39300013e+00 2.39300013e+00 2.39300013e+00 2.38900018e+00 2.38900018e+00 2.38900018e+00 2.38900018e+00 2.38900018e+00 2.38400006e+00 2.38400006e+00 2.38900018e+00 2.39700007e+00 2.39700007e+00 2.39700007e+00 2.40600014e+00 2.40600014e+00 2.41900015e+00 2.42400002e+00 2.42800021e+00 2.44200015e+00 2.44600010e+00 2.45500016e+00 2.45100021e+00 2.44600010e+00 2.43300009e+00
    2.92100024e+00 2.93400025e+00 2.93400025e+00 2.99400020e+00 3.00800014e+00 3.00800014e+00 3.01500010e+00 3.00800014e+00 3.00800014e+00 3.01500010e+00 3.00800014e+00 3.00100017e+00 2.99400020e+00 2.96100020e+00 2.92100024e+00 2.89600015e+00 2.88300014e+00 2.87700009e+00 2.87700009e+00 2.88900018e+00 2.89600015e+00 2.94700003e+00 3.00100017e+00 3.02100015e+00 3.02100015e+00 0. 0. 3.09200025e+00 3.02100015e+00 2.98100019e+00 2.98100019e+00 2.98700023e+00 2.99400020e+00 3.02800012e+00 3.02100015e+00 3.02100015e+00 3.06300020e+00 3.08500004e+00 3.08500004e+00 3.09200025e+00 3.09900022e+00 0. 0. 0. 0. 2.96700025e+00 2.96100020e+00 2.96100020e+00 2.96700025e+00 2.96700025e+00 2.98700023e+00 2.99400020e+00 2.98700023e+00 2.98700023e+00 2.98700023e+00 2.98100019e+00 2.98100019e+00 2.99400020e+00 2.98700023e+00 2.98100019e+00 2.97400022e+00 2.94700003e+00 2.90900016e+00 2.90900016e+00 0. 0. 2.86400008e+00 2.86400008e+00 2.86400008e+00 2.86400008e+00 2.86400008e+00 2.87700009e+00 2.87700009e+00 2.90200019e+00 2.92800021e+00 2.96100020e+00 2.98100019e+00 2.98100019e+00 2.96100020e+00 2.93400025e+00 2.93400025e+00 2.93400025e+00 2.93400025e+00 2.92100024e+00 2.91500020e+00 2.91500020e+00 2.92100024e+00 2.92800021e+00 2.94100022e+00 2.93400025e+00 2.93400025e+00 2.97400022e+00 2.98700023e+00 2.99400020e+00 3.00800014e+00 3.00800014e+00 3.02100015e+00 3.03500009e+00 3.04200006e+00 3.04900026e+00 3.05600023e+00 0. 0. 0. 2.97400022e+00 2.97400022e+00 2.97400022e+00 2.97400022e+00 2.99400020e+00 3.00100017e+00 2.98100019e+00 2.97400022e+00 2.97400022e+00 2.97400022e+00 2.94100022e+00 2.90900016e+00 2.89600015e+00 2.88900018e+00 2.88900018e+00 2.88300014e+00 2.88300014e+00 2.87700009e+00 2.87700009e+00 2.88300014e+00 2.88300014e+00 2.88300014e+00 2.89600015e+00 2.88900018e+00 2.88300014e+00 2.88300014e+00 0. 0. 0. 0. 0. 0. 0. 3.04900026e+00 3.04900026e+00 3.04900026e+00 2.97400022e+00 2.94700003e+00 2.94700003e+00 2.95400023e+00 2.96100020e+00 2.96100020e+00 2.96100020e+00 2.96700025e+00 2.94700003e+00 2.92100024e+00 2.90200019e+00 2.90200019e+00 2.89600015e+00 2.88900018e+00 2.88900018e+00 2.88900018e+00 0. 0. 2.89600015e+00 2.89600015e+00 2.89600015e+00 2.89600015e+00 2.89600015e+00 2.89600015e+00 2.89600015e+00 2.88900018e+00 2.88300014e+00 2.88300014e+00 2.88300014e+00 2.88900018e+00 2.89600015e+00 2.90900016e+00 2.90900016e+00 2.90900016e+00 2.90900016e+00 2.90900016e+00 2.90900016e+00 2.90900016e+00 2.91500020e+00 2.92100024e+00 2.95400023e+00 2.98700023e+00 3.01500010e+00 3.01500010e+00 3.01500010e+00 3.02100015e+00 3.00800014e+00 2.98100019e+00 2.98100019e+00 2.98100019e+00 2.98100019e+00 2.96700025e+00 2.94700003e+00 2.94700003e+00 2.94700003e+00 2.94100022e+00 2.92100024e+00 2.92100024e+00 2.92100024e+00 2.92100024e+00 2.92100024e+00 2.92100024e+00 2.94700003e+00 2.95400023e+00 2.96700025e+00 2.99400020e+00 3.00100017e+00 3.00100017e+00 2.98100019e+00 2.96100020e+00 2.92800021e+00 2.92100024e+00 2.91500020e+00 2.90900016e+00 2.90900016e+00 2.91500020e+00 2.92100024e+00 2.94100022e+00 2.95400023e+00 2.96100020e+00 2.96100020e+00 2.96700025e+00 2.99400020e+00 3.00100017e+00 0. 0. 0. 0. 0. 0. 0. 0. 0. 0. 0. 0. 0. 0. 2.76900005e+00 2.76300025e+00 2.76300025e+00 4.93800020e+00 4.93800020e+00 0. 0. 0. 0. 0. 0. 0. 0. 0. 0. 0. 0. 0. 0. 2.54500008e+00 2.53500009e+00 2.53000021e+00 2.52600002e+00 2.51600003e+00 2.51100016e+00 2.49200010e+00 2.47400022e+00 2.46000004e+00 2.45100021e+00 2.43300009e+00 2.42400002e+00 2.42400002e+00 2.41900015e+00 2.41900015e+00 2.41500020e+00 2.41100001e+00 2.40600014e+00 2.40200019e+00 2.39700007e+00 2.39300013e+00 2.38900018e+00 2.38000011e+00 2.37200022e+00 2.36700010e+00 2.36300015e+00 2.36300015e+00 2.36700010e+00 2.37600017e+00 2.37600017e+00 2.38000011e+00 2.38000011e+00 2.38000011e+00 2.38400006e+00 2.38400006e+00 2.38000011e+00 2.37600017e+00 2.37600017e+00 2.38000011e+00 2.38000011e+00 2.37200022e+00 2.37200022e+00 2.37200022e+00 2.38400006e+00 2.40600014e+00 2.40600014e+00 2.40600014e+00 2.41900015e+00 2.44200015e+00 2.44600010e+00 2.45100021e+00 2.46000004e+00 2.45500016e+00 2.45500016e+00 2.45100021e+00 2.43700004e+00 2.42400002e+00
    2.91500020e+00 2.91500020e+00 2.93400025e+00 2.99400020e+00 3.00800014e+00 3.00800014e+00 3.01500010e+00 3.00800014e+00 3.00100017e+00 3.00100017e+00 2.99400020e+00 2.98700023e+00 2.98700023e+00 2.97400022e+00 2.95400023e+00 2.92800021e+00 2.91500020e+00 2.91500020e+00 2.92100024e+00 2.94100022e+00 2.97400022e+00 3.02100015e+00 3.04200006e+00 3.04200006e+00 3.05600023e+00 0. 0. 3.09200025e+00 3.05600023e+00 3.02800012e+00 3.02800012e+00 3.02800012e+00 3.02800012e+00 3.01500010e+00 3.01500010e+00 3.01500010e+00 3.04200006e+00 3.06300020e+00 3.06300020e+00 3.06300020e+00 0. 0. 0. 0. 0. 2.97400022e+00 2.97400022e+00 2.98100019e+00 2.98100019e+00 2.98100019e+00 2.98700023e+00 2.98100019e+00 2.96700025e+00 2.96700025e+00 2.97400022e+00 2.98100019e+00 2.98100019e+00 2.99400020e+00 3.00100017e+00 3.00100017e+00 3.00100017e+00 2.96100020e+00 2.91500020e+00 2.91500020e+00 2.96100020e+00 0. 2.86400008e+00 2.86400008e+00 2.86400008e+00 2.87100005e+00 2.87100005e+00 2.87700009e+00 2.87700009e+00 2.90900016e+00 2.92800021e+00 2.95400023e+00 2.98100019e+00 2.98100019e+00 2.96100020e+00 2.93400025e+00 2.93400025e+00 2.93400025e+00 2.93400025e+00 2.92100024e+00 2.91500020e+00 2.91500020e+00 2.92100024e+00 2.93400025e+00 2.94100022e+00 2.93400025e+00 2.93400025e+00 2.96700025e+00 2.98700023e+00 2.99400020e+00 3.00100017e+00 3.00100017e+00 3.01500010e+00 3.02100015e+00 3.02800012e+00 3.02800012e+00 3.02800012e+00 0. 0. 0. 2.97400022e+00 2.97400022e+00 2.97400022e+00 2.97400022e+00 3.00100017e+00 3.00800014e+00 3.00100017e+00 2.98700023e+00 2.98100019e+00 2.98100019e+00 2.98100019e+00 2.93400025e+00 2.93400025e+00 2.92800021e+00 2.92800021e+00 2.92100024e+00 2.91500020e+00 2.90200019e+00 2.90200019e+00 2.90200019e+00 2.88900018e+00 2.88900018e+00 2.89600015e+00 2.89600015e+00 2.89600015e+00 2.89600015e+00 0. 0. 0. 0. 0. 0. 0. 3.06300020e+00 3.06300020e+00 3.07000017e+00 0. 2.94700003e+00 2.94700003e+00 2.95400023e+00 2.97400022e+00 2.96700025e+00 2.96700025e+00 2.98100019e+00 2.98700023e+00 2.94100022e+00 2.91500020e+00 2.90900016e+00 2.90200019e+00 2.90200019e+00 2.90200019e+00 0. 0. 0. 2.90200019e+00 2.90200019e+00 2.89600015e+00 2.89600015e+00 2.89600015e+00 2.89600015e+00 2.89600015e+00 2.88300014e+00 2.88300014e+00 2.88300014e+00 2.88300014e+00 2.89600015e+00 2.90900016e+00 2.90900016e+00 2.91500020e+00 2.91500020e+00 2.90900016e+00 2.90900016e+00 2.90900016e+00 2.90900016e+00 2.91500020e+00 2.92100024e+00 2.94100022e+00 2.98700023e+00 3.02100015e+00 3.02100015e+00 3.03500009e+00 3.02100015e+00 3.01500010e+00 2.98100019e+00 2.98100019e+00 2.98100019e+00 2.98100019e+00 2.97400022e+00 2.95400023e+00 2.94700003e+00 2.94700003e+00 2.95400023e+00 2.92800021e+00 2.92100024e+00 2.92100024e+00 2.92100024e+00 2.92100024e+00 2.93400025e+00 2.95400023e+00 2.95400023e+00 2.97400022e+00 3.00100017e+00 3.01500010e+00 3.02800012e+00 3.02800012e+00 2.99400020e+00 2.96700025e+00 2.96100020e+00 2.95400023e+00 2.94100022e+00 2.94100022e+00 2.94700003e+00 2.96100020e+00 2.97400022e+00 2.98100019e+00 2.98100019e+00 2.96700025e+00 2.96700025e+00 2.99400020e+00 3.00100017e+00 0. 0. 0. 0. 0. 0. 0. 0. 0. 0. 0. 0. 0. 2.75700021e+00 2.75100017e+00 2.74600005e+00 2.74600005e+00 4.93800020e+00 4.93800020e+00 0. 0. 0. 0. 0. 0. 0. 0. 0. 0. 0. 0. 0. 0. 2.54500008e+00 2.52600002e+00 2.52600002e+00 2.52600002e+00 2.51600003e+00 2.51600003e+00 2.49200010e+00 2.47400022e+00 2.46000004e+00 2.45100021e+00 2.43300009e+00 2.42400002e+00 2.42400002e+00 2.42400002e+00 2.43300009e+00 2.43700004e+00 2.43300009e+00 2.42400002e+00 2.41900015e+00 2.40200019e+00 2.39700007e+00 2.38900018e+00 2.37600017e+00 2.37200022e+00 2.36700010e+00 2.36300015e+00 2.36300015e+00 2.36700010e+00 2.37600017e+00 2.36300015e+00 2.36300015e+00 2.36300015e+00 2.36300015e+00 2.36300015e+00 2.36700010e+00 2.37200022e+00 2.37200022e+00 2.37200022e+00 2.38000011e+00 2.37600017e+00 2.37200022e+00 2.37200022e+00 2.37200022e+00 2.38000011e+00 2.40200019e+00 2.38400006e+00 2.38400006e+00 2.45500016e+00 2.45500016e+00 2.46000004e+00 2.46000004e+00 2.46400023e+00 2.46000004e+00 2.45500016e+00 2.44200015e+00 2.42800021e+00 2.41100001e+00
    2.91500020e+00 2.91500020e+00 2.94100022e+00 3.00800014e+00 3.01500010e+00 3.01500010e+00 3.01500010e+00 3.00800014e+00 3.00100017e+00 3.00100017e+00 2.99400020e+00 2.98700023e+00 2.98700023e+00 2.97400022e+00 2.96700025e+00 2.96100020e+00 2.94700003e+00 2.94700003e+00 2.96700025e+00 2.99400020e+00 3.01500010e+00 3.02800012e+00 3.04200006e+00 3.04900026e+00 3.07000017e+00 3.09200025e+00 0. 3.11400008e+00 3.09900022e+00 3.07800007e+00 3.07000017e+00 3.04200006e+00 3.03500009e+00 3.01500010e+00 2.98700023e+00 2.98700023e+00 2.98700023e+00 3.02100015e+00 3.00800014e+00 3.00800014e+00 3.01500010e+00 0. 0. 2.98700023e+00 2.98700023e+00 0. 2.98700023e+00 2.98700023e+00 2.98700023e+00 2.99400020e+00 2.98700023e+00 2.97400022e+00 2.96700025e+00 2.96700025e+00 2.97400022e+00 2.98100019e+00 2.98100019e+00 2.99400020e+00 3.01500010e+00 3.01500010e+00 3.02100015e+00 3.04200006e+00 3.00800014e+00 2.96100020e+00 2.96100020e+00 0. 2.87100005e+00 2.87100005e+00 2.87700009e+00 2.87100005e+00 2.87100005e+00 2.88300014e+00 2.88300014e+00 2.92100024e+00 2.93400025e+00 2.95400023e+00 0. 0. 2.96100020e+00 2.94100022e+00 2.94100022e+00 2.94700003e+00 2.94700003e+00 2.93400025e+00 2.92800021e+00 2.92800021e+00 2.94100022e+00 2.96700025e+00 2.96100020e+00 2.94100022e+00 2.94100022e+00 2.96700025e+00 2.98700023e+00 2.99400020e+00 3.00100017e+00 3.00100017e+00 3.00100017e+00 3.00800014e+00 3.01500010e+00 3.01500010e+00 3.00100017e+00 2.98100019e+00 2.97400022e+00 2.97400022e+00 2.97400022e+00 2.98100019e+00 2.99400020e+00 3.00800014e+00 3.01500010e+00 3.01500010e+00 3.00800014e+00 2.99400020e+00 2.98100019e+00 2.98100019e+00 2.98100019e+00 2.96700025e+00 2.94700003e+00 2.94700003e+00 2.94700003e+00 2.94700003e+00 2.94100022e+00 2.93400025e+00 2.93400025e+00 2.93400025e+00 2.92100024e+00 2.91500020e+00 2.91500020e+00 2.91500020e+00 2.91500020e+00 2.92100024e+00 0. 0. 0. 0. 0. 0. 0. 3.07000017e+00 3.07000017e+00 3.07800007e+00 0. 2.98700023e+00 2.97400022e+00 2.97400022e+00 2.98700023e+00 2.98700023e+00 2.98700023e+00 3.00800014e+00 3.00800014e+00 2.99400020e+00 2.94100022e+00 2.94100022e+00 2.94100022e+00 2.94700003e+00 2.94700003e+00 0. 0. 0. 2.98700023e+00 2.94700003e+00 2.92800021e+00 2.90900016e+00 2.90200019e+00 2.88900018e+00 2.87700009e+00 2.87100005e+00 2.87100005e+00 2.88300014e+00 2.88300014e+00 2.90200019e+00 2.92100024e+00 2.92100024e+00 2.92800021e+00 2.92800021e+00 2.92100024e+00 2.92100024e+00 2.92100024e+00 2.91500020e+00 2.91500020e+00 2.92100024e+00 2.94100022e+00 2.98700023e+00 3.00100017e+00 3.02100015e+00 3.03500009e+00 3.02100015e+00 3.01500010e+00 2.99400020e+00 2.99400020e+00 2.99400020e+00 2.98700023e+00 2.97400022e+00 2.96100020e+00 2.95400023e+00 2.95400023e+00 2.96100020e+00 2.94700003e+00 2.93400025e+00 2.93400025e+00 2.93400025e+00 2.93400025e+00 2.94100022e+00 2.95400023e+00 2.95400023e+00 2.96100020e+00 2.99400020e+00 3.02100015e+00 3.04900026e+00 3.05600023e+00 3.02800012e+00 3.00100017e+00 2.98700023e+00 2.98100019e+00 2.96700025e+00 2.95400023e+00 2.95400023e+00 2.96700025e+00 2.97400022e+00 2.98700023e+00 2.98100019e+00 2.97400022e+00 2.97400022e+00 2.98700023e+00 2.98700023e+00 2.98700023e+00 0. 0. 0. 0. 0. 0. 0. 0. 0. 0. 0. 2.76300025e+00 2.74000025e+00 2.74000025e+00 2.72900009e+00 2.72300005e+00 2.70600009e+00 2.70600009e+00 0. 0. 0. 2.67300010e+00 2.67300010e+00 0. 0. 0. 0. 2.60000014e+00 2.56000018e+00 2.56000018e+00 0. 2.53000021e+00 2.53000021e+00 2.52600002e+00 2.52100015e+00 2.52100015e+00 2.52100015e+00 2.52100015e+00 0. 2.47800016e+00 2.46900010e+00 2.45500016e+00 2.43700004e+00 2.42400002e+00 2.42400002e+00 2.42400002e+00 2.43700004e+00 2.44200015e+00 2.43300009e+00 2.42400002e+00 2.41900015e+00 2.40200019e+00 2.39700007e+00 2.38900018e+00 2.37600017e+00 2.37200022e+00 2.36700010e+00 2.35500002e+00 2.35500002e+00 2.34600019e+00 2.34200001e+00 2.34200001e+00 2.34600019e+00 2.34600019e+00 2.34600019e+00 2.35100007e+00 2.35100007e+00 2.35900021e+00 2.36300015e+00 2.36700010e+00 2.37600017e+00 2.37200022e+00 2.37200022e+00 2.36300015e+00 2.36300015e+00 2.37200022e+00 2.38900018e+00 2.38400006e+00 2.38400006e+00 2.46900010e+00 2.46900010e+00 2.46900010e+00 2.46400023e+00 2.46400023e+00 2.46000004e+00 2.45500016e+00 2.44200015e+00 2.41900015e+00 2.41100001e+00
    2.92100024e+00 2.92100024e+00 2.96700025e+00 3.00800014e+00 3.02100015e+00 3.02100015e+00 3.02100015e+00 3.00800014e+00 3.00100017e+00 3.00100017e+00 2.99400020e+00 2.98100019e+00 2.98100019e+00 2.97400022e+00 2.97400022e+00 2.97400022e+00 2.96700025e+00 2.96700025e+00 2.98100019e+00 3.00800014e+00 3.02800012e+00 3.04200006e+00 3.04200006e+00 3.05600023e+00 3.06300020e+00 3.09200025e+00 0. 3.09200025e+00 3.07800007e+00 3.07800007e+00 3.03500009e+00 3.01500010e+00 3.00100017e+00 2.98100019e+00 2.95400023e+00 2.94100022e+00 2.94100022e+00 2.97400022e+00 2.98100019e+00 2.98100019e+00 3.01500010e+00 0. 0. 2.98700023e+00 2.98700023e+00 0. 0. 0. 3.00800014e+00 3.00100017e+00 2.98700023e+00 2.96700025e+00 2.96700025e+00 2.96700025e+00 2.98100019e+00 2.98700023e+00 2.98700023e+00 3.00100017e+00 3.02800012e+00 3.02800012e+00 3.03500009e+00 3.05600023e+00 3.02100015e+00 3.00100017e+00 2.97400022e+00 2.97400022e+00 2.91500020e+00 2.90200019e+00 2.90200019e+00 2.89600015e+00 2.88900018e+00 2.88900018e+00 2.88900018e+00 2.90900016e+00 2.93400025e+00 2.95400023e+00 0. 0. 2.99400020e+00 2.98100019e+00 2.96100020e+00 2.96100020e+00 2.96100020e+00 2.94700003e+00 2.93400025e+00 2.93400025e+00 2.95400023e+00 2.99400020e+00 3.00800014e+00 2.98700023e+00 2.97400022e+00 2.96700025e+00 2.96700025e+00 2.97400022e+00 2.97400022e+00 2.97400022e+00 2.98700023e+00 2.98700023e+00 2.99400020e+00 3.00100017e+00 2.99400020e+00 2.98100019e+00 2.97400022e+00 2.97400022e+00 2.97400022e+00 2.98700023e+00 3.00800014e+00 3.00800014e+00 3.02100015e+00 3.02100015e+00 3.00800014e+00 2.99400020e+00 2.98100019e+00 2.98100019e+00 2.98100019e+00 2.98100019e+00 2.96100020e+00 2.95400023e+00 2.95400023e+00 2.95400023e+00 2.95400023e+00 2.94700003e+00 2.94700003e+00 2.94700003e+00 2.96700025e+00 2.97400022e+00 2.96700025e+00 2.96100020e+00 2.96100020e+00 0. 0. 0. 0. 0. 0. 0. 0. 0. 0. 0. 0. 0. 2.97400022e+00 2.97400022e+00 2.97400022e+00 2.97400022e+00 3.00100017e+00 3.00100017e+00 3.02100015e+00 3.00800014e+00 2.98700023e+00 2.96100020e+00 2.95400023e+00 2.94700003e+00 2.94700003e+00 0. 0. 0. 2.98700023e+00 2.95400023e+00 2.92100024e+00 2.89600015e+00 2.88300014e+00 2.87100005e+00 2.86400008e+00 2.86400008e+00 2.87100005e+00 2.87700009e+00 2.88900018e+00 2.90900016e+00 2.92100024e+00 2.92800021e+00 2.94100022e+00 2.94100022e+00 2.92800021e+00 2.92800021e+00 2.92800021e+00 2.92800021e+00 2.94100022e+00 2.94100022e+00 2.96100020e+00 3.00100017e+00 3.00100017e+00 3.01500010e+00 3.04200006e+00 3.02800012e+00 3.02100015e+00 3.00800014e+00 3.00100017e+00 3.00100017e+00 2.98700023e+00 2.97400022e+00 2.96100020e+00 2.95400023e+00 2.95400023e+00 2.96100020e+00 2.95400023e+00 2.94700003e+00 2.94100022e+00 2.94100022e+00 2.94100022e+00 2.94100022e+00 2.94100022e+00 2.95400023e+00 2.95400023e+00 2.98100019e+00 3.00800014e+00 3.03500009e+00 3.04900026e+00 3.02800012e+00 3.01500010e+00 3.00100017e+00 2.98700023e+00 2.97400022e+00 2.96100020e+00 2.96100020e+00 2.96700025e+00 2.98100019e+00 2.98700023e+00 2.98100019e+00 2.97400022e+00 2.97400022e+00 2.98100019e+00 2.97400022e+00 2.97400022e+00 2.98100019e+00 0. 0. 0. 0. 0. 0. 0. 0. 0. 2.74000025e+00 2.72300005e+00 2.72300005e+00 2.72300005e+00 2.71700025e+00 2.70100021e+00 2.69000006e+00 2.69000006e+00 0. 0. 0. 2.67300010e+00 2.67300010e+00 0. 0. 0. 0. 2.60000014e+00 2.53500009e+00 2.53500009e+00 2.51600003e+00 2.51600003e+00 2.51600003e+00 0. 2.50200009e+00 2.50200009e+00 2.50200009e+00 0. 0. 2.47400022e+00 2.46000004e+00 2.46000004e+00 2.45100021e+00 2.45100021e+00 2.45500016e+00 2.46400023e+00 2.47400022e+00 2.47800016e+00 2.46400023e+00 2.46400023e+00 2.43300009e+00 2.40600014e+00 2.39700007e+00 2.39300013e+00 2.37600017e+00 2.36700010e+00 2.36300015e+00 2.35100007e+00 2.34600019e+00 2.34600019e+00 2.33400011e+00 2.33400011e+00 2.33000016e+00 2.33000016e+00 2.33000016e+00 2.33400011e+00 2.34600019e+00 2.34600019e+00 2.35100007e+00 2.35900021e+00 2.36700010e+00 2.37200022e+00 2.36300015e+00 2.36300015e+00 2.36300015e+00 2.37200022e+00 2.38400006e+00 2.41100001e+00 2.41100001e+00 2.42400002e+00 2.46000004e+00 2.45500016e+00 2.45500016e+00 2.45500016e+00 2.44600010e+00 2.43700004e+00 2.41900015e+00 2.40600014e+00 2.40200019e+00</data></depth>
</opencv_storage>
